# .PCD v0.7 - Point Cloud Data file format
VERSION 0.7
FIELDS x y z rgb
SIZE 4 4 4 4
TYPE F F F F
COUNT 1 1 1 1
WIDTH 1055
HEIGHT 1
VIEWPOINT 0 0 0 1 0 0 0
POINTS 1055
DATA ascii
1.5988482 -0.82797247 2.7502227 2.3509886e-38
1.6216259 -0.8343401 2.7878165 2.3509886e-38
1.6502745 -0.83840603 2.8446193 2.3509886e-38
1.6735265 -0.86130852 2.8976078 2.3509886e-38
1.7048067 -0.88360459 2.9343736 2.3509886e-38
1.7373326 -0.88603473 2.9690554 2.3509886e-38
1.7848258 -0.89727283 3.009069 2.3509886e-38
1.8068435 -0.91283607 3.0415511 2.3509886e-38
1.8297659 -0.91546452 3.0841467 2.3509886e-38
1.8539033 -0.92092669 3.137466 2.3509886e-38
1.8758447 -0.9244864 3.1788712 2.3509886e-38
1.8989233 -0.92332917 3.2171946 2.3509886e-38
1.9326497 -0.91676003 3.262341 2.3509886e-38
1.9654785 -0.93134052 3.2965667 2.3509886e-38
1.9832809 -0.95424467 3.3219309 2.3509886e-38
1.9985269 -0.9707275 3.3468974 2.3509886e-38
2.0150154 -0.98816979 3.3850684 2.3509886e-38
2.0301483 -1.0048316 3.412899 2.3509886e-38
2.0555894 -1.0222518 3.4501114 2.3509886e-38
2.0853355 -1.0250709 3.4860008 2.3509886e-38
2.1136022 -1.0360677 3.5141706 2.3509886e-38
2.1314976 -1.0448866 3.5451164 2.3509886e-38
2.1485813 -1.0492747 3.5808244 2.3509886e-38
2.1611655 -1.0607033 3.6271706 2.3509886e-38
2.17904 -1.0767804 3.6667531 2.3509886e-38
2.200469 -1.0807898 3.7032931 2.3509886e-38
2.2353661 -1.0816106 3.7401614 2.3509886e-38
2.2618933 -1.0957587 3.7704997 2.3509886e-38
2.27525 -1.1062843 3.8046119 2.3509886e-38
2.2844458 -1.1127608 3.8477719 2.3509886e-38
2.2869489 -1.1334959 3.8969541 2.3509886e-38
2.2996159 -1.1566329 3.927922 2.3509886e-38
2.3220925 -1.1634932 3.9604661 2.3509886e-38
2.3608887 -1.1639831 3.9944584 2.3509886e-38
2.4031425 -1.1795042 4.030889 2.3509886e-38
2.4225781 -1.1892674 4.0533152 2.3509886e-38
2.446115 -1.1930038 4.0821815 2.3509886e-38
2.466022 -1.200676 4.1231575 2.3509886e-38
2.478457 -1.2208278 4.1617675 2.3509886e-38
2.4930174 -1.2268504 4.1882114 2.3509886e-38
2.5253756 -1.2279811 4.2210522 2.3509886e-38
2.5594268 -1.246686 4.2484431 2.3509886e-38
2.5851054 -1.252507 4.2828517 2.3509886e-38
2.604943 -1.2563764 4.3289375 2.3509886e-38
2.6241741 -1.2743819 4.3682728 2.3509886e-38
2.6480675 -1.2824821 4.3995624 2.3509886e-38
2.6887867 -1.2849374 4.4403391 2.3509886e-38
2.720988 -1.2992103 4.4694972 2.3509886e-38
2.7383366 -1.3055398 4.4968672 2.3509886e-38
2.7577271 -1.3133329 4.5474563 2.3509886e-38
2.7716243 -1.3339068 4.5884295 2.3509886e-38
2.7899745 -1.3416773 4.6152916 2.3509886e-38
2.8128455 -1.3425646 4.644886 2.3509886e-38
2.8365407 -1.3417057 4.6689253 2.3509886e-38
2.8746052 -1.3513771 4.7002444 2.3509886e-38
2.893002 -1.3578521 4.7261262 2.3509886e-38
2.9127281 -1.3620926 4.7575231 2.3509886e-38
2.9280164 -1.3632038 4.8035116 2.3509886e-38
2.9393113 -1.3735667 4.8516192 2.3509886e-38
2.9551532 -1.3911135 4.8859792 2.3509886e-38
2.9706171 -1.3992581 4.9170465 2.3509886e-38
2.9985921 -1.4000568 4.9601421 2.3509886e-38
3.0358348 -1.4141777 5.0010252 2.3509886e-38
3.0602834 -1.428529 5.0396156 2.3509886e-38
3.0824502 -1.4307227 5.0883608 2.3509886e-38
3.0990078 -1.4451538 5.1396184 2.3509886e-38
3.1224337 -1.460762 5.1832948 2.3509886e-38
3.1507199 -1.4613075 5.224793 2.3509886e-38
3.1880622 -1.4677893 5.259551 2.3509886e-38
3.2059884 -1.4826413 5.2820363 2.3509886e-38
3.2245588 -1.485088 5.3227086 2.3509886e-38
3.2318451 -1.4922731 5.3714647 2.3509886e-38
3.2446754 -1.5089004 5.4119406 2.3509886e-38
3.2606268 -1.5159342 5.4473186 2.3509886e-38
3.289516 -1.5179229 5.4916544 2.3509886e-38
3.3292584 -1.531492 5.540061 2.3509886e-38
3.3519287 -1.5421333 5.5860076 2.3509886e-38
3.3676782 -1.5503526 5.6390042 2.3509886e-38
3.3880544 -1.5722034 5.6809812 2.3509886e-38
3.4122884 -1.5799775 5.7190514 2.3509886e-38
3.4497252 -1.5782692 5.7651205 2.3509886e-38
3.486666 -1.5911126 5.8066149 2.3509886e-38
3.5114455 -1.596307 5.8468027 2.3509886e-38
0.77048731 -0.098715797 1.8913383 2.3418165e-38
0.77538842 -0.0414446 1.6889496 2.3418178e-38
0.53536868 0.048956499 1.305688 2.3418201e-38
0.3246277 0.084359199 1.2414731 2.3418206e-38
0.51097423 0.030664699 1.3593516 2.3418199e-38
0.45644981 0.063834503 1.2843128 2.3418203e-38
0.45365989 0.095323101 1.1974989 2.3418208e-38
0.59600967 0.058334399 1.3117722 2.3418201e-38
0.38661239 0.089997403 1.2025017 2.3418208e-38
1.0563103 -0.54699731 2.4827743 2.3418127e-38
0.63575959 0.035499301 1.3969554 2.3418196e-38
1.3304292 -0.30733371 2.8005164 2.3418108e-38
1.017393 -0.2245497 2.3347437 2.3418137e-38
1.5022804 -0.44139481 3.2561271 2.3418078e-38
0.79586637 -0.25194591 2.5731747 2.3418122e-38
-0.2300241 -0.095981397 2.0447381 2.3418155e-38
2.6253886 -0.87282318 4.7664838 2.3435629e-38
1.7653273 -0.87536812 4.5978761 2.343276e-38
2.8775852 -0.85401249 4.787497 2.3435988e-38
2.2175741 -1.0752958 5.2934427 2.3444239e-38
2.8737204 -0.83413529 4.6929393 2.3434194e-38
3.0183063 -0.92460942 5.0759306 2.3440652e-38
2.1506281 -0.96172649 4.9839725 2.3439217e-38
2.1372166 -1.0856421 5.3277287 2.3444598e-38
2.2240934 -1.0635149 4.2290096 2.342702e-38
1.8508595 -0.89163607 4.6297498 2.3433477e-38
2.1089313 -1.0136472 5.0496044 2.3440293e-38
2.1862659 -1.0334127 4.2283573 2.342702e-38
2.2749345 -1.0426434 5.2891016 2.344388e-38
2.2595158 -0.90212679 4.7896552 2.3435988e-38
2.1986485 -1.0738428 4.2264671 2.3426661e-38
2.7105699 -0.82837582 4.6237125 2.3433118e-38
2.2428389 -1.0397538 4.2282019 2.342702e-38
2.8351798 -0.90779579 4.9389267 2.3438499e-38
2.7300732 -0.84870839 4.7209873 2.3434912e-38
2.1685817 -1.1001705 5.3438034 2.3444956e-38
2.7192457 -0.82985121 4.6091475 2.3433118e-38
2.5626605 -0.79613471 4.5047684 2.3431325e-38
3.1613107 -0.92071372 5.0113206 2.3439575e-38
2.7127986 -0.85543609 4.7356505 2.3434912e-38
2.4483471 -0.87467158 4.6824169 2.3434194e-38
2.4966211 -0.8899706 4.7306037 2.3434912e-38
2.6999087 -0.81097049 4.5412388 2.3432042e-38
1.9615425 -0.83954608 4.4665651 2.3430607e-38
2.4649646 -1.0435107 5.2770524 2.344388e-38
2.8107984 -0.8274098 4.6484284 2.3433477e-38
2.6345322 -0.8104865 4.5626416 2.3432401e-38
1.7732099 -0.89730889 4.6884131 2.3434194e-38
2.2060912 -1.1407548 4.2189384 2.3426661e-38
1.6950704 -0.92505687 4.759491 2.3435271e-38
2.2759933 -0.96806991 5.0402274 2.3439934e-38
2.187721 -1.0346897 4.2251878 2.3426661e-38
2.2392762 -1.0356457 4.2276578 2.3426661e-38
2.2630589 -1.0283604 5.2310066 2.3443163e-38
2.399359 -0.93518043 4.9097276 2.3437782e-38
3.0748534 -0.9106757 5.0339584 2.3439934e-38
2.2677495 -0.89011341 4.7434521 2.3435271e-38
2.2422435 -1.0554671 4.226459 2.3426661e-38
2.607305 -0.90362012 4.7965322 2.3435988e-38
2.9298849 -0.92556542 5.0522738 2.3440293e-38
2.0621703 -1.1205765 5.3992529 2.3445674e-38
2.218642 -1.2100928 5.7207389 2.3451055e-38
2.162014 -1.1394374 5.4736619 2.3447109e-38
2.136869 -1.1149588 5.3849883 2.3445674e-38
2.0627325 -1.1204618 5.3928852 2.3445674e-38
2.2148943 -1.0676475 4.2281423 2.3426661e-38
2.2397804 -1.032989 4.2300234 2.342702e-38
1.9925307 -0.84490317 4.4765868 2.3430966e-38
1.4228042 -0.96089143 5.0079403 2.3439575e-38
2.7107611 -0.85751981 4.7338128 2.3434912e-38
2.1917083 -1.0235759 4.2279463 2.3426661e-38
2.24597 -1.0502185 4.2268419 2.3426661e-38
2.2146335 -1.0675563 4.2260985 2.3426661e-38
2.323164 -0.98273659 5.0916042 2.3440652e-38
2.2340865 -1.2166041 5.5902886 2.3448903e-38
2.1921334 -1.0493957 4.2277479 2.3426661e-38
3.2384508 -0.925363 4.9931426 2.3439217e-38
3.0230227 -0.88159221 4.8689504 2.3437064e-38
3.129941 -0.98303872 5.2139707 2.3442804e-38
2.2144172 -1.0584441 4.2297983 2.342702e-38
2.2391844 -1.2084908 5.4138713 2.3446033e-38
2.2788577 -0.96801978 5.0377645 2.3439934e-38
2.2987001 -0.92897213 4.876184 2.3437423e-38
2.8677318 -0.81570703 4.6080141 2.3433118e-38
3.0060229 -0.93169987 5.0621796 2.3440293e-38
2.8899965 -0.91425687 4.982007 2.3439217e-38
2.9568613 -0.88341892 4.8988099 2.3437782e-38
2.5291018 -1.0898025 5.4448748 2.3446391e-38
2.9667835 -0.86398441 4.8322387 2.3436706e-38
2.2147703 -1.0676798 4.2271562 2.3426661e-38
2.2116559 -1.1853323 4.2155948 2.3426661e-38
2.9601042 -0.9336077 5.0907078 2.3440652e-38
2.1704869 -1.0680151 4.2254519 2.3426661e-38
2.2156434 -1.0273089 4.2281251 2.3426661e-38
2.4300697 -0.87768811 4.7044148 2.3434553e-38
2.1984372 -1.0745039 4.2252154 2.3426661e-38
2.4341738 -1.0476984 5.3021626 2.3444239e-38
2.219296 -1.0209792 4.2292085 2.342702e-38
2.8410323 -0.93548018 5.0088534 2.3439575e-38
2.1980965 -1.0822171 4.2253509 2.3426661e-38
2.4716644 -0.84437478 4.5796146 2.3432401e-38
2.4561512 -1.2650421 4.6487546 2.3433477e-38
2.1741953 -1.0931467 4.2231264 2.3426661e-38
2.6768968 -0.79898912 4.4936771 2.3430966e-38
3.0903807 -0.84296173 4.7952299 2.3435988e-38
2.3039691 -1.1189684 5.4458432 2.3446391e-38
2.8281937 -0.82469511 4.4003005 2.3429531e-38
2.7361171 -0.83635479 4.6796465 2.3434194e-38
2.9000871 -0.87269467 4.8885441 2.3437423e-38
2.3993556 -0.87251031 4.6751318 2.3434194e-38
2.3964369 -0.90438712 4.803381 2.3435988e-38
2.9038672 -0.89642698 4.9649105 2.3438858e-38
3.3192773 -1.0019419 5.4446044 2.3446391e-38
2.1918769 -1.0766917 4.225709 2.3426661e-38
2.813246 -0.88482118 4.8800483 2.3437423e-38
2.7004399 -0.84677237 4.6712489 2.3433836e-38
2.7340226 -0.84431618 4.6999369 2.3434553e-38
2.6188183 -0.79758161 4.5041018 2.3431325e-38
2.5249488 -0.86310852 4.648427 2.3433477e-38
2.918587 -0.83358192 4.6680021 2.3433836e-38
2.246089 -0.89545512 4.7682533 2.3435629e-38
2.2186067 -0.91035688 4.8072257 2.3436347e-38
2.1814198 -1.0818336 4.2259083 2.3426661e-38
2.2519698 -1.054872 4.2288332 2.342702e-38
2.5076501 -0.83551753 4.5520492 2.3432042e-38
3.214354 -0.93667668 5.1372113 2.3441728e-38
2.8469725 -0.81800258 4.6057024 2.3433118e-38
2.7250922 -0.80681711 4.5392098 2.3432042e-38
2.4398043 -1.0610033 5.3472919 2.3444956e-38
2.2456746 -1.0905702 5.3265839 2.3444598e-38
2.743052 -0.8298986 4.6387434 2.3433477e-38
2.7887988 -0.85219342 4.7790122 2.3435629e-38
2.7002227 -0.84167677 4.6873941 2.3434194e-38
1.7837787 -0.88653249 4.6326241 2.3433477e-38
2.3067138 -0.91994709 4.8419042 2.3436706e-38
2.0712926 -1.0021327 5.0040698 2.3439575e-38
2.1966593 -1.0167671 4.2280679 2.3426661e-38
2.2259457 -1.0646013 4.2250609 2.3426661e-38
2.4726918 -0.84692979 4.5851712 2.343276e-38
2.3995359 -0.85974711 4.6318603 2.3433477e-38
2.7294085 -0.84792942 4.6701431 2.3433836e-38
2.8341897 -0.82716823 4.6487503 2.3433477e-38
2.8774478 -0.8312577 4.6973653 2.3434553e-38
1.8722355 -0.87568861 4.5989566 2.343276e-38
2.0797975 -0.98650497 4.9616828 2.3438858e-38
2.2215285 -1.2502863 4.196178 2.3426302e-38
2.8816891 -0.8671121 4.8644943 2.3437064e-38
2.8216326 -0.82053852 4.6154327 2.3433118e-38
2.8528087 -0.80305588 4.5738735 2.3432401e-38
2.8002906 -0.8161571 4.5689955 2.3432401e-38
2.6580846 -0.8209343 4.5843172 2.343276e-38
2.7912312 -0.84246981 4.7043948 2.3434553e-38
2.0728812 -1.0018922 4.9994969 2.3439217e-38
2.3946822 -0.88477862 4.7226171 2.3434912e-38
2.2213643 -1.2108389 4.2036452 2.3426302e-38
2.6664958 -0.85702717 4.722683 2.3434912e-38
2.4724553 -0.84131688 4.5615234 2.3432401e-38
2.6774986 -0.89723778 4.7698116 2.3435629e-38
2.6352963 -0.80942643 4.565937 2.3432401e-38
2.640666 -0.8222127 4.6038766 2.343276e-38
2.4797039 -0.93176728 4.9061356 2.3437782e-38
2.1931434 -1.2233652 4.2149673 2.3426661e-38
2.2300777 -0.85325658 4.6064177 2.3433118e-38
2.2353947 -0.94866228 4.8432603 2.3436706e-38
2.2129176 -1.147133 4.2290788 2.342702e-38
2.1728814 -1.0945066 4.2241392 2.3426661e-38
2.9529173 -0.82822078 4.6399808 2.3433477e-38
2.2145782 -1.185515 4.2075491 2.3426661e-38
2.2027681 -1.209182 4.2069983 2.3426661e-38
2.4219635 -0.88646472 4.5738854 2.3432401e-38
2.229177 -1.0276186 5.2073798 2.3442804e-38
2.1096766 -1.1252518 5.4216685 2.3446033e-38
2.8455238 -0.82389551 4.6295347 2.3433477e-38
2.8771524 -0.85394931 4.7860537 2.3435988e-38
2.7577264 -0.90481251 4.8898053 2.3437423e-38
2.9562962 -0.95619988 5.1626916 2.3442087e-38
2.7083662 -0.81477761 4.5635409 2.3432401e-38
1.8635838 -1.1017456 5.2935266 2.3444239e-38
2.4284363 -1.0175812 5.2220616 2.3442804e-38
2.7577264 -0.90561128 4.8945351 2.3437782e-38
2.9417222 -0.8648684 4.8416595 2.3436706e-38
3.0805089 -0.91193128 4.9753003 2.3438858e-38
2.3962326 -0.95594448 4.8824773 2.3437423e-38
2.2426829 -0.87726068 4.5580463 2.3432042e-38
3.4614742 -1.0827146 5.8398557 2.3452849e-38
2.2023127 -0.86257511 4.639761 2.3433477e-38
2.1703539 -1.0681294 4.2251053 2.3426661e-38
2.5192175 -0.94208288 4.9306445 2.3438141e-38
2.3073328 -0.92068559 4.8414297 2.3436706e-38
2.3369644 -0.90042752 4.7669988 2.3435629e-38
2.195303 -1.0152832 4.2321625 2.342702e-38
2.2078085 -1.0705929 4.2265353 2.3426661e-38
2.2864416 -1.090115 5.3306603 2.3444598e-38
2.4732487 -0.84311157 4.5810609 2.3432401e-38
2.3489225 -1.0178734 5.2170815 2.3442804e-38
1.693661 -0.85957551 4.4734955 2.3430966e-38
2.2086718 -1.0703027 4.2245541 2.3426661e-38
2.673754 -0.83565289 4.6344099 2.3433477e-38
2.4207218 -0.86842 4.6534419 2.3433836e-38
2.0473211 -0.95132589 4.8666315 2.3437064e-38
2.4729567 -0.84675318 4.5839267 2.343276e-38
2.2524972 -1.0781971 5.295681 2.3444239e-38
2.0310185 -0.99365097 4.9625468 2.3438858e-38
2.5937717 -0.80464542 4.5176592 2.3431683e-38
2.3287034 -0.91935182 4.83214 2.3436706e-38
2.0228825 -1.0085912 5.0059953 2.3439575e-38
2.2372656 -1.2837261 5.412158 2.3446033e-38
2.0061202 -0.99250817 4.9525752 2.3438499e-38
2.6979656 -0.86295003 4.7367444 2.3434912e-38
2.8630502 -0.8419528 4.7346301 2.3434912e-38
2.0508347 -1.0995966 5.3510675 2.3444956e-38
2.0280712 -1.3477299 6.0606532 2.3456436e-38
2.8158844 -0.87184048 4.8466406 2.3436706e-38
3.0364971 -0.90532827 4.9581447 2.3438499e-38
2.9329319 -0.93298149 5.0789838 2.3440652e-38
2.1609852 -1.1392512 5.4874692 2.3447109e-38
2.2532692 -1.0554861 4.2256069 2.3426661e-38
2.8775086 -0.85408121 4.7879233 2.3435988e-38
2.2356191 -0.87293643 4.6747551 2.3434194e-38
2.1108263 -1.1252896 5.417541 2.3446033e-38
2.3401968 -0.87156087 4.6687655 2.3433836e-38
2.2504337 -1.0900748 5.3199954 2.3444598e-38
2.6739738 -0.8357513 4.6331925 2.3433477e-38
2.8677645 -0.83687413 4.6898308 2.3434194e-38
2.3194177 -0.86495447 4.6545053 2.3433836e-38
2.1395712 -0.97361511 4.9374933 2.3438499e-38
2.6511548 -0.86077791 4.7354913 2.3434912e-38
2.1854904 -1.0795346 4.2257533 2.3426661e-38
2.6337492 -1.1464169 4.6512771 2.3433836e-38
2.7989764 -0.93279803 4.9878974 2.3439217e-38
2.6802564 -0.92335123 4.8626008 2.3437064e-38
2.2840915 -1.0953903 5.3556304 2.3444956e-38
3.0555096 -0.92559928 5.0650096 2.3440293e-38
2.7643585 -0.89619392 4.8908925 2.3437423e-38
2.2436872 -1.0489385 5.1946712 2.3442445e-38
3.0213573 -0.95292568 5.197238 2.3442445e-38
2.048218 -1.0009638 5.0054402 2.3439575e-38
2.5179043 -0.88703221 4.7163315 2.3434912e-38
2.1840212 -1.0797776 4.2265787 2.3426661e-38
2.835242 -0.79525459 4.5662494 2.3432401e-38
2.9269996 -0.87284529 4.8307123 2.3436706e-38
2.4731109 -0.84560078 4.5871367 2.343276e-38
3.4238842 -0.92027128 5.1452031 2.3441728e-38
2.9725761 -0.89078999 4.9486604 2.3438499e-38
2.9644861 -0.84418631 4.7167611 2.3434912e-38
3.1321774 -1.0222156 5.4010859 2.3445674e-38
3.1074228 -0.89660847 4.9185433 2.3438141e-38
2.9322281 -0.82347339 4.6507778 2.3433836e-38
2.9754717 -0.84591299 4.7113895 2.3434553e-38
2.7432427 -0.80819911 4.582149 2.3432401e-38
2.3473854 -1.021592 5.2004795 2.3442445e-38
2.72929 -0.80215079 4.5032549 2.3431325e-38
2.9647672 -0.8823806 4.9002876 2.3437782e-38
3.0277295 -0.87885797 4.8742704 2.3437423e-38
2.7112265 -0.82538217 4.6077986 2.3433118e-38
2.3992405 -0.87014067 4.6664963 2.3433836e-38
2.3511398 -1.0194279 5.1989517 2.3442445e-38
2.5898519 -0.84233642 4.5650601 2.3432401e-38
3.3377645 -0.93017513 5.0440221 2.3439934e-38
3.1126685 -1.0300243 5.4288006 2.3446391e-38
3.1022818 -0.94906533 5.1638098 2.3442087e-38
2.6501465 -0.86608201 4.7396331 2.3435271e-38
2.2625861 -1.1271052 5.4059076 2.3446033e-38
2.3512695 -1.0009339 5.1326518 2.3441369e-38
2.3069067 -0.9189108 4.8448763 2.3436706e-38
3.4155712 -1.0977896 5.7178388 2.3451055e-38
2.9827199 -0.92715448 5.0900779 2.3440652e-38
3.1579762 -1.0035696 5.4046698 2.3446033e-38
3.1364934 -0.9280296 4.9866972 2.3439217e-38
2.9409754 -0.85592192 4.7544103 2.3435271e-38
2.7049232 -0.88525218 4.8285894 2.3436706e-38
2.7090721 -0.82888877 4.6025414 2.343276e-38
2.375407 -1.0775354 5.3769312 2.3445315e-38
2.6433859 -0.83534479 4.6319618 2.3433477e-38
2.9840078 -0.87700057 4.8901982 2.3437423e-38
3.23979 -1.008088 5.3180218 2.3444598e-38
2.9299936 -0.91390628 4.969995 2.3438858e-38
2.7735238 -0.93375868 4.9850817 2.3439217e-38
1.8918643 -0.99594522 4.9535131 2.3438499e-38
2.336221 -0.89886522 4.7699671 2.3435629e-38
2.9248395 -0.86344188 4.8841677 2.3437423e-38
2.1584933 -1.1402564 5.4958715 2.3447468e-38
3.2984021 -0.88067949 4.9656944 2.3438858e-38
2.1332531 -1.0202689 5.0969625 2.344101e-38
2.0715404 -1.0348244 5.1459074 2.3441728e-38
1.989204 -1.0957166 5.2908578 2.344388e-38
2.3598247 -0.85847491 4.6218095 2.3433118e-38
2.5300572 -0.89669919 4.7750287 2.3435629e-38
1.8642962 -1.2974182 6.0651107 2.3456436e-38
2.0641456 -0.92596018 4.859642 2.3437064e-38
1.8841332 -1.0402582 5.0987182 2.344101e-38
2.2727954 -0.8987186 4.7820945 2.3435629e-38
2.6430008 -0.83651972 4.6297259 2.3433477e-38
2.4625747 -0.90854073 4.7113066 2.3434553e-38
2.656436 -0.81917518 4.6614008 2.3433836e-38
2.7640252 -0.90185422 4.8823833 2.3437423e-38
2.9102843 -0.86189139 4.8246889 2.3436347e-38
2.7669621 -0.84975982 4.7075844 2.3434553e-38
1.9304545 -1.0322065 5.059011 2.3440293e-38
2.9212713 -0.86561209 4.8807454 2.3437423e-38
2.2264135 -0.97352201 5.0389047 2.3439934e-38
2.963465 -0.84511501 4.7155442 2.3434553e-38
1.9410473 -1.320994 6.1231098 2.3457512e-38
3.0272746 -0.89450848 4.944725 2.3438499e-38
2.7922125 -0.82293522 4.6075945 2.3433118e-38
2.760891 -0.89665949 4.8781762 2.3437423e-38
3.4368029 -1.0133358 5.4995708 2.3447468e-38
3.2093248 -0.86692691 4.8521156 2.3437064e-38
1.9976294 -1.1321853 5.4518132 2.344675e-38
2.5239716 -0.86410838 4.6443787 2.3433477e-38
1.9352813 -1.0337948 5.0463881 2.3439934e-38
2.213577 -0.89660388 4.6209297 2.3433118e-38
2.4231541 -0.87435383 4.68959 2.3434194e-38
2.0344129 -0.97197598 4.8908839 2.3437423e-38
2.7380023 -0.90310347 4.8842793 2.3437423e-38
2.5441065 -0.88305318 4.7237196 2.3434912e-38
2.1302609 -0.90996838 4.7145376 2.3434553e-38
3.0685401 -0.90890223 5.0170016 2.3439575e-38
1.8877468 -0.96650982 4.8994317 2.3437782e-38
1.7755259 -1.190281 5.6556602 2.3449979e-38
1.7147861 -1.4468688 5.9266772 2.3454283e-38
2.4560306 -1.1495622 4.6088676 2.3433118e-38
2.1171281 -0.93187129 4.8894362 2.3437423e-38
2.3719637 -0.90584582 4.7838316 2.3435988e-38
3.0444856 -0.84113479 4.6975756 2.3434553e-38
2.7432053 -0.80862182 4.5807142 2.3432401e-38
2.8506575 -0.89583498 4.9357862 2.3438141e-38
2.7607002 -0.83564937 4.6725745 2.3434194e-38
1.9963374 -1.0958173 5.3250022 2.3444598e-38
2.1746047 -0.97559607 5.0347548 2.3439934e-38
1.9197087 -1.0860095 5.2530847 2.3443522e-38
2.1141891 -1.0610662 5.2493496 2.3443522e-38
2.8935714 -0.86191243 4.8342638 2.3436706e-38
2.7249606 -0.85880071 4.7575574 2.3435271e-38
2.9286578 -0.96762067 5.1796508 2.3442087e-38
3.5015783 -0.93034792 5.1560278 2.3441728e-38
2.2501903 -0.97333533 5.0476251 2.3439934e-38
2.1638827 -0.95934671 4.8835478 2.3437423e-38
3.1049259 -0.87885499 4.8798609 2.3437423e-38
2.9637468 -0.84943092 4.7453203 2.3435271e-38
2.7073431 -0.8311885 4.6190319 2.3433118e-38
3.3979194 -0.93660808 5.1715732 2.3442087e-38
2.279449 -0.95124519 4.9609308 2.3438858e-38
2.3553433 -0.94698799 4.9628963 2.3438858e-38
2.243583 -1.4200526 5.4036212 2.3446033e-38
3.4989645 -0.93352479 5.1580191 2.3441728e-38
2.6863596 -0.84004068 4.6702795 2.3433836e-38
2.8662 -0.83715779 4.6923509 2.3434194e-38
2.9175673 -0.86379611 4.8265076 2.3436347e-38
2.3265479 -0.92949992 4.8943605 2.3437782e-38
3.0809464 -0.86887223 4.8250604 2.3436347e-38
3.1305897 -0.97040278 5.1792393 2.3442087e-38
2.262361 -1.1264598 5.4054589 2.3446033e-38
1.9127979 -0.90228969 4.6961799 2.3434553e-38
2.8756719 -0.91517073 4.9838557 2.3439217e-38
1.6789261 -1.0700539 5.2732825 2.344388e-38
2.9191918 -0.86226118 4.8280969 2.3436706e-38
3.054682 -0.90069163 4.9625149 2.3438858e-38
2.8853364 -0.86627197 4.8207774 2.3436347e-38
3.1148407 -0.83114183 4.7389793 2.3435271e-38
2.6977067 -0.87594658 4.7774386 2.3435629e-38
3.0059605 -0.90961862 5.0245957 2.3439575e-38
2.8612533 -0.84229082 4.752389 2.3435271e-38
3.0523858 -0.91609991 5.0504055 2.3440293e-38
2.7857723 -0.807051 4.5533786 2.3432042e-38
3.0671015 -0.85530531 4.7914157 2.3435988e-38
2.3966429 -1.0542446 5.3005204 2.3444239e-38
3.0470033 -0.9082641 4.9465914 2.3438499e-38
2.7325666 -0.84658158 4.6968212 2.3434553e-38
2.1752632 -0.96733952 4.8992033 2.3437782e-38
1.8770812 -1.0609518 5.1811576 2.3442087e-38
1.9769244 -0.95841122 4.8845911 2.3437423e-38
2.2387853 -0.87972122 4.7039599 2.3434553e-38
2.9526806 -0.82462978 4.6489277 2.3433477e-38
2.0403354 -1.0174954 5.0177226 2.3439575e-38
2.4807446 -0.91038507 4.8053966 2.3436347e-38
2.6456318 -0.85660118 4.7200189 2.3434912e-38
2.7939591 -0.82924002 4.6474376 2.3433477e-38
2.0548782 -1.0047927 4.9874725 2.3439217e-38
2.2453682 -0.87673581 4.6886511 2.3434194e-38
2.231493 -0.87000859 4.6676984 2.3433836e-38
2.0030496 -0.96661961 4.8924046 2.3437423e-38
2.1733654 -1.0423875 5.2704463 2.344388e-38
2.0395255 -1.0167179 5.0203934 2.3439575e-38
2.8046567 -0.84099418 4.7182374 2.3434912e-38
1.8989874 -1.000711 4.9511466 2.3438499e-38
2.0979438 -1.0883212 5.3272748 2.3444598e-38
2.2831211 -1.0213063 5.20468 2.3442804e-38
1.9402702 -1.0815338 5.2516108 2.3443522e-38
2.4905748 -0.92896712 4.8881736 2.3437423e-38
1.6582694 -0.9522661 4.963325 2.3438858e-38
2.0457478 -0.9953596 4.9698753 2.3438858e-38
2.307281 -0.94408393 4.9394846 2.3438499e-38
1.4505398 -1.3546871 6.2226272 2.3458947e-38
2.8460321 -0.92551458 4.9980445 2.3439217e-38
2.0531428 -1.099309 5.3434114 2.3444956e-38
3.2555592 -0.94339341 5.1657581 2.3442087e-38
2.4325104 -0.89320087 4.6516523 2.3433836e-38
2.7097306 -0.85986573 4.7262912 2.3434912e-38
1.9493395 -0.97120488 4.8810382 2.3437423e-38
2.8570447 -0.8546865 4.7311306 2.3434912e-38
1.8312476 -0.95408148 4.8681149 2.3437064e-38
2.2893319 -0.93516779 5.0283937 2.3439934e-38
2.0503671 -0.88567609 4.729239 2.3434912e-38
2.1355622 -1.1146652 5.3866243 2.3445674e-38
2.2174459 -0.9693324 5.0220132 2.3439575e-38
2.0375016 -1.0668395 5.2454939 2.3443163e-38
2.3044467 -0.92530441 4.8750539 2.3437423e-38
1.8882296 -0.94712877 4.8602295 2.3437064e-38
2.4771173 -0.86193168 4.6472669 2.3433477e-38
2.689152 -0.83500189 4.6756015 2.3434194e-38
1.9460605 -0.97130191 4.8845057 2.3437423e-38
2.0359728 -1.0899841 5.3272052 2.3444598e-38
3.0440662 -0.83762181 4.7228808 2.3434912e-38
1.8947579 -1.0212741 4.9302125 2.3438141e-38
1.8004099 -0.95696789 4.8927093 2.3437423e-38
2.0177433 -0.96071827 4.8613429 2.3437064e-38
2.6015649 -0.86941808 4.6708903 2.3433836e-38
1.9073814 -1.0062188 4.9325328 2.3438141e-38
2.1328082 -0.94472623 4.8471379 2.3436706e-38
1.7727138 -0.95123738 4.9502139 2.3438499e-38
2.0229533 -1.000542 4.9231539 2.3438141e-38
2.0228124 -1.0104244 5.0010576 2.3439217e-38
2.3557796 -0.9488194 5.051136 2.3440293e-38
1.9848664 -1.0568299 5.177042 2.3442087e-38
2.4261644 -1.07932 4.8199873 2.3436347e-38
2.3886189 -0.95886201 4.8005543 2.3435988e-38
2.6964889 -0.84698433 4.6700077 2.3433836e-38
2.4057722 -0.968867 4.8583474 2.3437064e-38
2.4652584 -1.0584038 4.7474613 2.3435271e-38
1.9162171 -0.93371671 4.7948961 2.3435988e-38
1.9942807 -1.1123585 5.0612121 2.3440293e-38
2.7977333 -0.87915319 4.8275871 2.3436706e-38
2.5161953 -0.88495243 4.7190175 2.3434912e-38
2.8163309 -0.83922857 4.6854873 2.3434194e-38
2.7601941 -0.90310317 4.8909445 2.3437423e-38
2.8185828 -0.91316628 4.9476695 2.3438499e-38
3.0751071 -1.0082188 5.3774705 2.3445315e-38
1.7383729 -1.1648073 5.5414863 2.3448185e-38
2.3732872 -0.93777311 4.8973503 2.3437782e-38
1.9139464 -1.0834961 5.2705388 2.344388e-38
1.8080065 -1.1523985 5.5325222 2.3447826e-38
2.7523861 -0.86523461 4.765101 2.3435629e-38
1.9901351 -0.95687461 4.8464913 2.3436706e-38
2.8440347 -0.84942007 4.7814393 2.3435629e-38
3.4434693 -0.98240131 5.3851166 2.3445674e-38
2.7112136 -0.81321663 4.5670071 2.3432401e-38
2.1956995 -0.91959459 4.754488 2.3435271e-38
2.0547085 -0.95700228 4.847681 2.3436706e-38
2.2918842 -1.0143753 5.1805944 2.3442087e-38
3.771157 -0.94768578 5.4312763 2.3446391e-38
2.7562611 -0.87043053 4.8086691 2.3436347e-38
3.1119411 -0.89410418 5.0964079 2.344101e-38
2.2554419 -1.0818952 5.2810955 2.344388e-38
1.8809997 -1.0952002 5.3252888 2.3444598e-38
2.2083225 -0.92215651 4.8520656 2.3437064e-38
3.358634 -1.0026383 5.3506708 2.3444956e-38
2.7866142 -0.85423177 4.7755055 2.3435629e-38
2.1465096 -0.92509931 4.7600121 2.3435271e-38
3.201941 -0.89984047 4.9384422 2.3438499e-38
2.6948557 -0.82929748 4.6214881 2.3433118e-38
2.930486 -0.8772499 4.8906603 2.3437423e-38
2.7895668 -0.88192648 4.86552 2.3437064e-38
3.4972813 -0.9319458 5.1505213 2.3441728e-38
2.466805 -0.89103591 4.7466121 2.3435271e-38
2.9573801 -0.84759438 4.77174 2.3435629e-38
2.9588859 -0.85912979 4.8093624 2.3436347e-38
2.9046271 -0.91193682 5.0263133 2.3439934e-38
3.1227875 -0.89173561 4.8817506 2.3437423e-38
2.206409 -0.96717012 5.0085502 2.3439575e-38
2.7673965 -0.87619168 4.8160238 2.3436347e-38
2.4762256 -0.87150508 4.6703005 2.3433836e-38
3.4279838 -0.92536807 5.165041 2.3442087e-38
3.025893 -0.8706708 4.8467755 2.3436706e-38
3.7083642 -1.1536343 5.7901139 2.3452131e-38
3.0369353 -0.86090332 4.8113737 2.3436347e-38
3.0245371 -0.89658701 4.9415512 2.3438499e-38
2.2516541 -1.0795647 5.3060012 2.3444239e-38
2.24195 -0.98704708 5.09622 2.344101e-38
3.4454963 -1.0296661 5.4136033 2.3446033e-38
3.7298467 -0.94127369 5.3123965 2.3444239e-38
3.3459754 -1.0106869 5.4162931 2.3446033e-38
3.1519439 -0.97213513 5.2780423 2.344388e-38
3.9706321 -1.0788938 5.5838552 2.3448903e-38
3.1515021 -1.0814703 4.9252939 2.3438141e-38
2.8352017 -0.92242759 4.9909849 2.3439217e-38
3.326129 -1.0835266 5.6329608 2.344962e-38
3.538166 -1.0699459 5.6833453 2.3450337e-38
2.3873198 -1.0276853 5.2085586 2.3442804e-38
1.749512 -0.93724108 4.8203773 2.3436347e-38
1.9915366 -1.1316937 5.4694982 2.3447109e-38
1.8892556 -1.1229011 5.4475899 2.344675e-38
1.9158463 -0.958193 4.8205876 2.3436347e-38
2.04087 -0.99668652 4.9692907 2.3438858e-38
2.4548521 -1.180811 4.600029 2.343276e-38
2.5330248 -0.88717341 4.7384014 2.3435271e-38
1.8801817 -1.0628943 5.1726961 2.3442087e-38
2.0416906 -0.91117263 4.8207836 2.3436347e-38
1.4536132 -0.99267387 5.4017181 2.3445674e-38
2.3017585 -0.93157661 4.8884649 2.3437423e-38
2.0897622 -1.1242894 5.3912811 2.3445674e-38
2.7538099 -0.84784889 4.7014909 2.3434553e-38
2.6847675 -0.94403559 4.9369001 2.3438141e-38
2.7953255 -0.86192131 4.8270788 2.3436706e-38
1.9671067 -0.97440219 4.9067268 2.3437782e-38
2.3022914 -0.93216002 4.8877091 2.3437423e-38
2.8510551 -0.86125809 4.8225145 2.3436347e-38
2.77877 -0.83918339 4.7063808 2.3434553e-38
2.2257481 -1.2332848 5.9357395 2.3454642e-38
3.084003 -0.89924562 4.9382315 2.3438499e-38
1.9177405 -1.0187465 5.0034995 2.3439217e-38
2.7441962 -0.86351383 4.7875471 2.3435988e-38
2.6828275 -0.92349118 4.8599377 2.3437064e-38
2.7865195 -0.86962551 4.8082004 2.3436347e-38
2.9465196 -0.84516019 4.7278466 2.3434912e-38
2.3471537 -0.99921948 5.1121736 2.344101e-38
2.1399536 -1.115523 5.3658342 2.3445315e-38
1.9257582 -0.95920283 4.876081 2.3437423e-38
1.8808146 -0.99308741 4.9698753 2.3438858e-38
2.0122077 -0.97505403 4.8711524 2.3437423e-38
2.3033001 -0.94522679 4.9401326 2.3438499e-38
1.9590935 -0.97591692 4.9274149 2.3438141e-38
2.6413319 -0.83574361 4.6295447 2.3433477e-38
1.9664695 -1.0098968 4.998508 2.3439217e-38
2.045747 -0.9303599 4.789433 2.3435988e-38
2.0915055 -1.093107 5.3249254 2.3444598e-38
2.0207298 -1.0082076 5.0092402 2.3439575e-38
1.8787452 -0.93353379 4.8886003 2.3437423e-38
2.4651449 -1.1557102 4.676918 2.3434194e-38
2.3826125 -0.93118829 4.895153 2.3437782e-38
2.4651692 -1.1802294 4.633822 2.3433477e-38
2.0706656 -0.97939777 4.9008312 2.3437782e-38
2.2398162 -0.95272309 4.831275 2.3436706e-38
2.4514198 -1.0102658 4.6904316 2.3434194e-38
2.8617101 -0.83876067 4.6890035 2.3434194e-38
2.0882006 -1.1322541 5.479682 2.3447109e-38
2.9305944 -0.90028548 4.9659295 2.3438858e-38
1.8517543 -0.9968617 4.9755421 2.3438858e-38
3.0361919 -0.94640273 5.1515284 2.3441728e-38
3.1615798 -0.93660039 5.143887 2.3441728e-38
2.0525601 -0.97060442 4.8845806 2.3437423e-38
1.8729473 -1.0591578 5.2133436 2.3442804e-38
1.987911 -0.93506932 4.7913837 2.3435988e-38
1.997057 -0.96802592 4.8873534 2.3437423e-38
2.0488191 -0.98873878 4.9323206 2.3438141e-38
2.8133297 -0.87489849 4.8580613 2.3437064e-38
2.8883607 -0.82694238 4.6438522 2.3433477e-38
2.7894375 -0.83434129 4.6401377 2.3433477e-38
2.9075422 -0.9605521 5.1444173 2.3441728e-38
3.1863108 -0.88783628 4.9160681 2.3438141e-38
3.0566878 -0.91464001 5.0545735 2.3440293e-38
3.2972167 -0.85953629 4.8906155 2.3437423e-38
2.9039998 -0.89617902 4.9660788 2.3438858e-38
2.5405233 -0.90680528 4.8084903 2.3436347e-38
2.8419635 -0.82095861 4.6006393 2.343276e-38
2.8759861 -0.83617622 4.628253 2.3433477e-38
1.6928978 -1.1559157 5.555624 2.3448185e-38
1.9763466 -0.97037119 4.9137731 2.3437782e-38
3.008512 -1.0349694 5.366818 2.3445315e-38
2.7929165 -0.88080943 4.8732862 2.3437423e-38
3.0375147 -0.90615231 4.9594722 2.3438499e-38
3.5661187 -1.0333574 5.4894137 2.3447109e-38
3.676296 -1.0464424 5.638051 2.344962e-38
2.000097 -0.96471888 4.8994527 2.3437782e-38
2.4052377 -0.88608748 4.6267624 2.3433118e-38
2.8233979 -0.84795022 4.7817192 2.3435629e-38
1.8057712 -1.1544315 5.5353026 2.3447826e-38
2.0862093 -0.92400271 4.871459 2.3437423e-38
2.0292151 -1.0373775 5.1490941 2.3441728e-38
2.1425087 -0.9756245 4.9297256 2.3438141e-38
3.2863462 -1.0945808 4.9521804 2.3438499e-38
3.0643237 -0.85855043 4.7969041 2.3435988e-38
2.2666326 -0.88976699 4.7296729 2.3434912e-38
2.2564981 -1.0124443 5.1530337 2.3441728e-38
3.060221 -0.88775599 4.8843026 2.3437423e-38
2.4053645 -0.93453479 4.9142795 2.3437782e-38
3.0302205 -0.89334148 4.9443865 2.3438499e-38
2.9756167 -0.87793159 4.9050474 2.3437782e-38
2.9299307 -0.84287763 4.7152801 2.3434553e-38
2.9563868 -0.87063229 4.9003072 2.3437782e-38
3.0269167 -0.85850137 4.8368545 2.3436706e-38
1.9295999 -1.0331161 5.0736179 2.3440652e-38
3.1334121 -0.94399458 5.163785 2.3442087e-38
3.3846467 -0.98599011 5.3350854 2.3444598e-38
3.1442018 -0.93406922 5.0870156 2.3440652e-38
3.6676638 -1.1651769 5.4073482 2.3446033e-38
3.2151809 -0.95383513 5.1796417 2.3442087e-38
2.2566946 -1.040035 5.250463 2.3443522e-38
2.255605 -1.0129323 5.1552968 2.3441728e-38
3.3476956 -1.0134267 5.4215579 2.3446033e-38
3.9347091 -1.0162795 5.4414277 2.3446391e-38
2.9920032 -0.8468619 4.7770934 2.3435629e-38
2.1277955 -0.99078548 4.9963431 2.3439217e-38
2.6464939 -0.86652952 4.7406564 2.3435271e-38
2.0465381 -1.1186759 5.4471974 2.344675e-38
2.3687689 -0.94395119 4.9464965 2.3438499e-38
1.7854669 -1.2086927 5.6077147 2.3449261e-38
1.965397 -1.0136626 4.9607058 2.3438858e-38
3.0506222 -0.89996552 4.9785094 2.3438858e-38
2.8432839 -0.87165707 4.8634925 2.3437064e-38
2.9529061 -0.89209902 5.0095901 2.3439575e-38
2.1125124 -0.98315072 4.952002 2.3438499e-38
2.0330956 -0.97062159 4.8936653 2.3437782e-38
2.3282275 -0.93219048 4.8863163 2.3437423e-38
1.9953438 -1.1320779 5.4569345 2.344675e-38
1.9181975 -0.96763039 4.8996286 2.3437782e-38
2.0576618 -1.0058573 4.9814367 2.3438858e-38
1.947068 -1.0341487 5.0648975 2.3440293e-38
3.0781553 -0.87767071 4.8646774 2.3437064e-38
1.9498377 -0.97181523 4.9256644 2.3438141e-38
3.1257608 -0.83483279 4.7606244 2.3435629e-38
2.7185798 -0.88566619 4.8106656 2.3436347e-38
2.5033314 -0.93138802 4.9005227 2.3437782e-38
2.5223627 -0.94114763 4.9323888 2.3438141e-38
2.9140596 -0.89157307 4.9524112 2.3438499e-38
2.9471028 -0.84255183 4.7303371 2.3434912e-38
2.8781064 -0.85849071 4.8170104 2.3436347e-38
2.4795403 -0.91800272 4.8349576 2.3436706e-38
2.2694416 -0.96750492 5.0425153 2.3439934e-38
3.3901539 -0.90571058 5.0608006 2.3440293e-38
2.0723982 -1.0028989 5.0019426 2.3439217e-38
3.0095842 -0.90746611 5.0306268 2.3439934e-38
2.715863 -0.84749949 4.6701202 2.3433836e-38
2.6238687 -0.91255271 4.8235297 2.3436347e-38
2.8800802 -0.83378839 4.635262 2.3433477e-38
2.7667148 -0.84896302 4.7136712 2.3434553e-38
3.2096336 -0.84402913 4.8001041 2.3435988e-38
3.0694051 -0.85360187 4.7948451 2.3435988e-38
2.8244591 -0.90768403 4.9384274 2.3438499e-38
2.3302941 -0.9547084 4.9903717 2.3439217e-38
1.7815472 -1.1104013 5.4156108 2.3446033e-38
2.9111586 -0.84022772 4.6639767 2.3433836e-38
2.6668255 -0.85780978 4.7250819 2.3434912e-38
1.9092768 -0.96412599 4.9138117 2.3437782e-38
2.9294839 -0.8986997 4.9616766 2.3438858e-38
2.1349177 -1.0094258 5.0339775 2.3439934e-38
2.2105367 -0.95528728 4.8627458 2.3437064e-38
2.9448848 -0.91013128 4.995173 2.3439217e-38
2.9840553 -0.84289539 4.7156005 2.3434553e-38
2.9469135 -0.86222488 4.7191434 2.3434912e-38
2.8750155 -0.8569175 4.7848024 2.3435988e-38
2.0770764 -0.97867072 4.9407883 2.3438499e-38
1.983428 -1.0916207 5.3116503 2.3444239e-38
2.9815319 -0.83056742 4.6386552 2.3433477e-38
2.3988256 -0.89184391 4.9638896 2.3438858e-38
3.0594163 -0.89241588 4.910131 2.3437782e-38
1.9681071 -1.0291933 5.0116215 2.3439575e-38
2.384871 -0.94111502 4.8056121 2.3436347e-38
3.1124318 -0.89440542 4.9262056 2.3438141e-38
2.9204924 -0.90180433 4.9975438 2.3439217e-38
3.0106359 -0.97192222 5.2712998 2.344388e-38
2.9238141 -0.97840852 5.1827912 2.3442445e-38
3.297195 -0.88007891 4.9650154 2.3438858e-38
2.5028033 -0.8952989 4.7548141 2.3435271e-38
3.2174089 -0.93395728 5.1415515 2.3441728e-38
3.0397327 -0.83529818 4.6935692 2.3434194e-38
1.8675319 -1.2182732 5.7818122 2.3452131e-38
1.9382082 -0.9281773 4.7769241 2.3435629e-38
1.9436017 -1.1472089 5.5237761 2.3447826e-38
2.6861579 -0.91407931 4.8268981 2.3436706e-38
1.8128296 -1.0303134 5.0586972 2.3440293e-38
2.7658207 -0.85097098 4.7039971 2.3434553e-38
2.5890033 -0.89136189 4.7491713 2.3435271e-38
3.5508771 -1.025915 5.5708141 2.3448544e-38
2.6554799 -1.2302794 4.7818422 2.3435629e-38
2.4632957 -1.1749749 4.6957154 2.3434553e-38
2.1859429 -0.9922967 5.0898213 2.3440652e-38
3.5043736 -1.0428956 5.5622048 2.3448544e-38
3.1313162 -0.85766393 4.802578 2.3435988e-38
2.8451161 -0.83401573 4.6864872 2.3434194e-38
2.8865795 -0.84181982 4.7139688 2.3434553e-38
2.9468143 -0.83603448 4.6748619 2.3434194e-38
2.8554847 -0.92574942 4.999999 2.3439217e-38
2.9730105 -0.90073878 4.9782434 2.3438858e-38
2.8335078 -0.88350338 4.890624 2.3437423e-38
2.06476 -0.97261512 4.9148703 2.3437782e-38
3.0358298 -0.87510198 4.8606906 2.3437064e-38
3.4204743 -1.0320749 5.5365767 2.3448185e-38
3.1210337 -0.86805928 4.8467779 2.3436706e-38
3.3231258 -0.89524919 5.0355811 2.3439934e-38
2.0133886 -0.94044697 4.8244162 2.3436347e-38
3.1013541 -0.83053958 4.8541603 2.3437064e-38
2.6905203 -0.87490278 4.779613 2.3435629e-38
2.7699764 -0.91507578 4.916358 2.3438141e-38
2.8443878 -0.93391848 5.0187144 2.3439575e-38
2.8296204 -0.90705568 4.9445601 2.3438499e-38
2.1224675 -1.0677428 5.2455783 2.3443163e-38
1.9451061 -0.99731737 4.9917231 2.3439217e-38
3.5119655 -1.0581427 5.5991974 2.3448903e-38
2.0385187 -1.0163612 5.020133 2.3439575e-38
2.9475842 -0.87522089 4.8908343 2.3437423e-38
3.1071167 -0.94724083 5.1699228 2.3442087e-38
2.9672444 -0.90798098 5.036685 2.3439934e-38
2.2354715 -0.980358 5.0749507 2.3440652e-38
2.9366741 -0.83708417 4.6697149 2.3433836e-38
3.2400882 -0.9356603 5.1454902 2.3441728e-38
3.4369228 -0.92114121 5.1032286 2.344101e-38
3.3839545 -0.94161278 5.1572456 2.3441728e-38
3.0742221 -1.4437304 5.7338362 2.3451055e-38
2.9804237 -0.90617591 4.9774532 2.3438858e-38
2.7635229 -0.85318363 4.7032795 2.3434553e-38
3.5124147 -1.0061909 5.4980145 2.3447468e-38
3.1892591 -0.97460401 5.2277737 2.3443163e-38
3.5040598 -1.0074915 5.4898252 2.3447109e-38
2.9483485 -0.8942017 4.9997859 2.3439217e-38
3.7166815 -1.0456564 5.6882124 2.3450337e-38
2.0342553 -1.0382856 5.1377978 2.3441728e-38
3.5100293 -1.0027232 5.4850073 2.3447109e-38
3.0247705 -0.89597189 4.9429636 2.3438499e-38
3.3525851 -1.0827274 5.6678576 2.3449979e-38
2.9368956 -0.870345 4.8388453 2.3436706e-38
2.9296894 -0.83865052 4.7076044 2.3434553e-38
2.9484205 -0.83225918 4.6694789 2.3433836e-38
2.0744674 -1.0038413 4.9432092 2.3438499e-38
2.8831921 -0.84487182 4.7086039 2.3434553e-38
2.991421 -0.8233366 4.6339011 2.3433477e-38
2.6185341 -0.90418112 4.781888 2.3435629e-38
3.2302535 -0.87568492 4.8892164 2.3437423e-38
3.0625246 -0.88703811 4.8879337 2.3437423e-38
2.8922167 -0.91305178 4.9945326 2.3439217e-38
2.2685487 -1.0138221 5.1775465 2.3442087e-38
3.3055475 -0.82927591 4.8400826 2.3436706e-38
2.0693867 -1.0085099 4.9316368 2.3438141e-38
2.2381923 -0.96192253 5.0084963 2.3439575e-38
2.2506521 -0.97508281 5.0463758 2.3439934e-38
1.7802824 -1.1276302 5.427465 2.3446391e-38
2.7975788 -0.90589672 4.913291 2.3437782e-38
2.5329058 -0.89878309 4.7669444 2.3435629e-38
3.0415778 -0.81752098 4.7030087 2.3434553e-38
3.5268385 -0.91698319 5.1560993 2.3441728e-38
2.9985919 -0.85764152 4.8306766 2.3436706e-38
2.891546 -0.91332829 4.9928679 2.3439217e-38
1.7213756 -1.1924736 5.6573324 2.3449979e-38
3.14645 -0.92925441 5.0567713 2.3440293e-38
3.7435062 -0.93722028 5.322731 2.3444598e-38
3.0666282 -0.95125401 5.2225823 2.3442804e-38
2.9152284 -0.99111313 5.2208276 2.3442804e-38
3.490581 -0.91111058 5.1441927 2.3441728e-38
2.9181662 -0.834328 4.6486707 2.3433477e-38
2.9831545 -0.88403523 4.9245954 2.3438141e-38
2.3292198 -1.0020468 5.1320682 2.3441369e-38
2.2364604 -1.027575 5.2067981 2.3442804e-38
2.2042627 -0.98534483 5.0853734 2.3440652e-38
2.910053 -0.94677848 5.0909944 2.3440652e-38
3.4057052 -0.87275112 5.0027952 2.3439217e-38
3.1229494 -0.8894769 4.899745 2.3437782e-38
3.3135157 -0.92550403 5.1145973 2.344101e-38
2.7665215 -0.84870923 4.7139616 2.3434553e-38
3.6140032 -0.911511 5.1558499 2.3441728e-38
2.8262689 -0.8514452 4.7598591 2.3435271e-38
3.722611 -0.94136238 5.4430008 2.3446391e-38
2.9978955 -0.94179261 5.1547308 2.3441728e-38
2.3043768 -0.94505757 4.936883 2.3438141e-38
1.9799449 -0.9830662 4.8940768 2.3437782e-38
3.4587345 -1.0140898 5.4195676 2.3446033e-38
2.2076011 -1.0202338 5.0480275 2.3439934e-38
2.1234548 -0.95768631 4.8836908 2.3437423e-38
3.3478811 -0.86152238 4.922555 2.3438141e-38
1.8304495 -1.1633198 5.5367146 2.3448185e-38
3.1530468 -0.99443227 5.3834057 2.3445674e-38
3.1587398 -0.84729332 4.795517 2.3435988e-38
1.9851174 -0.98239899 4.89607 2.3437782e-38
1.7266027 -1.1287777 5.4724298 2.3447109e-38
2.1133034 -0.98370433 4.9520712 2.3438499e-38
2.8454075 -0.90809828 4.9618149 2.3438858e-38
3.3761003 -1.0262097 5.4045734 2.3446033e-38
2.5328763 -0.89072973 4.7330995 2.3434912e-38
2.3287327 -1.002669 5.1310472 2.3441369e-38
3.8857436 -0.9057734 5.2988987 2.3444239e-38
2.9070032 -0.84058839 4.7561493 2.3435271e-38
3.1164582 -0.89169753 4.9301519 2.3438141e-38
3.2404473 -0.89127618 4.9706221 2.3438858e-38
2.2308989 -0.96970731 4.9040499 2.3437782e-38
2.4810781 -0.92084479 4.8478789 2.3436706e-38
3.0295341 -0.84595698 4.8053226 2.3436347e-38
2.0443928 -0.98729998 4.9431872 2.3438499e-38
3.559474 -0.86301857 5.0297441 2.3439934e-38
3.7662208 -0.87839979 5.1673717 2.3442087e-38
3.3619041 -0.99728262 5.3570127 2.3444956e-38
2.7427373 -0.86440498 4.7858348 2.3435988e-38
1.9973763 -1.0416611 5.1279392 2.3441369e-38
3.007761 -0.92736322 5.1309109 2.3441369e-38
3.7518826 -0.94989842 5.4080439 2.3446033e-38
2.9181116 -0.85623991 4.7461648 2.3435271e-38
2.9587953 -0.88445842 4.9269185 2.3438141e-38
2.1306307 -0.96978807 4.924696 2.3438141e-38
2.9991939 -0.85654259 4.8328118 2.3436706e-38
3.3513165 -0.91964388 5.0487609 2.3440293e-38
2.9738696 -0.83611178 4.7289062 2.3434912e-38
2.9990997 -0.84410882 4.7318988 2.3434912e-38
3.0819476 -0.85010612 4.7827024 2.3435988e-38
1.7420756 -1.1245224 5.3880191 2.3445674e-38
3.6208818 -0.82617408 5.0947137 2.344101e-38
2.0337448 -0.99708819 4.9537072 2.3438499e-38
2.7224855 -0.86190152 4.7521772 2.3435271e-38
2.6964376 -0.85175103 4.7032104 2.3434553e-38
2.8291867 -0.90782583 4.9449158 2.3438499e-38
2.0417798 -0.99918652 4.9697251 2.3438858e-38
2.1454005 -1.0156792 5.0760236 2.3440652e-38
2.4668627 -1.1811287 4.610837 2.3433118e-38
3.0000048 -0.88961989 4.8140602 2.3436347e-38
2.369498 -0.94029999 4.9150763 2.3437782e-38
2.8810277 -0.8997668 4.9625592 2.3438858e-38
3.610894 -0.90871459 5.1637897 2.3442087e-38
3.1843913 -1.0743575 4.9594798 2.3438499e-38
2.8431633 -0.86930162 4.8726892 2.3437423e-38
1.765294 -1.1181673 5.3684902 2.3445315e-38
2.8513069 -0.8967042 4.9336185 2.3438141e-38
3.2885604 -0.8834123 4.9563427 2.3438499e-38
2.8668587 -0.84313053 4.7014589 2.3434553e-38
2.9608104 -0.88378048 4.9380417 2.3438499e-38
3.1039338 -0.87686533 4.8761892 2.3437423e-38
2.0354018 -0.97195232 4.8928552 2.3437423e-38
3.8946435 -0.97338408 5.5764952 2.3448544e-38
3.2363882 -0.98555762 5.3349743 2.3444598e-38
3.33496 -1.1402861 5.8842931 2.3453566e-38
2.8409426 -0.93559152 5.0080976 2.3439575e-38
3.3885808 -0.9070099 5.0593858 2.3440293e-38
3.13832 -0.90857297 4.9121866 2.3437782e-38
1.9300239 -1.0325618 5.0730252 2.3440652e-38
2.827574 -0.84961307 4.7617311 2.3435629e-38
2.9471655 -0.85411638 4.7931771 2.3435988e-38
3.0631466 -0.831209 4.7282138 2.3434912e-38
2.9192827 -0.93061948 5.0542402 2.3440293e-38
3.2967491 -0.95480877 5.1550827 2.3441728e-38
1.7536824 -1.3084009 5.6971493 2.3450696e-38
1.6489336 -1.2120998 5.7756324 2.3451772e-38
2.6970813 -0.8649618 4.7329707 2.3434912e-38
3.5004251 -0.94102103 5.1974363 2.3442445e-38
2.9072423 -0.84212363 4.6923709 2.3434194e-38
3.0801277 -0.84783429 4.774291 2.3435629e-38
2.8767848 -0.95327598 5.0957007 2.344101e-38
2.9583292 -0.88379842 4.9281678 2.3438141e-38
2.8215194 -0.92715323 4.9834089 2.3439217e-38
2.9107101 -0.81102878 4.581831 2.3432401e-38
3.1594746 -0.84599441 4.7975607 2.3435988e-38
3.1314788 -0.86420858 4.810009 2.3436347e-38
3.417434 -1.0329033 5.5320358 2.3447826e-38
3.0025988 -0.88765329 4.9133625 2.3437782e-38
3.0767045 -0.84954011 4.7983022 2.3435988e-38
3.1608763 -0.92178732 5.0144954 2.3439575e-38
1.9760015 -1.0835491 5.2708769 2.344388e-38
3.0029511 -0.97735047 5.2658529 2.3443522e-38
2.1200578 -0.93263102 4.8921137 2.3437423e-38
3.252737 -1.0746536 5.6638231 2.3449979e-38
3.0570166 -0.92501652 5.0181012 2.3439575e-38
2.9250526 -0.91655427 4.96209 2.3438858e-38
3.4597538 -1.0587113 5.7142496 2.3451055e-38
2.9041634 -0.87322003 4.8868513 2.3437423e-38
3.5261018 -1.1450229 5.8016238 2.3452131e-38
2.1113269 -1.014626 5.0463009 2.3439934e-38
3.0143008 -0.84785479 4.7372928 2.3434912e-38
2.9412732 -0.84620517 4.7242928 2.3434912e-38
2.1586623 -0.98203611 4.9766831 2.3438858e-38
1.9658786 -1.0031482 4.9573541 2.3438499e-38
2.006753 -1.0151975 4.994276 2.3439217e-38
2.1128378 -1.0166039 5.0415678 2.3439934e-38
2.8573942 -0.85229141 4.8191948 2.3436347e-38
1.9966164 -1.1154448 5.2707977 2.344388e-38
2.7189505 -0.87866002 4.9009819 2.3437782e-38
2.0422235 -1.0691984 5.2333083 2.3443163e-38
2.4795775 -1.2895766 4.620995 2.3433118e-38
2.8381848 -0.84341007 4.7844696 2.3435988e-38
2.4634781 -1.2939031 4.6282129 2.3433477e-38
1.9624451 -1.0873643 5.2506976 2.3443522e-38
2.4667835 -0.94084072 4.9070516 2.3437782e-38
2.8672881 -0.86942261 4.7983685 2.3435988e-38
2.8618574 -0.84327477 4.7328172 2.3434912e-38
2.8412933 -0.8747716 4.8566651 2.3437064e-38
2.4811494 -0.90852559 4.8092728 2.3436347e-38
2.4630201 -0.91045493 4.8099236 2.3436347e-38
2.8315456 -0.8839646 4.8937664 2.3437782e-38
3.0776806 -0.80716592 4.7407422 2.3435271e-38
2.9149129 -0.85718989 4.8000498 2.3435988e-38
2.155129 -0.97706687 4.9398999 2.3438499e-38
3.1914804 -0.82527339 4.7655339 2.3435629e-38
2.0079176 -1.0582093 5.1585398 2.3441728e-38
1.8767618 -1.0783373 5.2288141 2.3443163e-38
1.8052565 -1.1999925 5.6297245 2.344962e-38
2.987489 -0.92160809 5.1004839 2.344101e-38
2.9686422 -0.82209992 4.7136354 2.3434553e-38
2.9691975 -0.84647793 4.7237821 2.3434912e-38
2.9198115 -0.86551458 4.8624492 2.3437064e-38
3.0909133 -0.8343249 4.7719588 2.3435629e-38
2.825896 -0.85209692 4.7603955 2.3435629e-38
2.8834577 -0.85586232 4.7839808 2.3435988e-38
2.7587736 -0.90444458 4.8870492 2.3437423e-38
2.7924817 -0.90830791 4.9105659 2.3437782e-38
3.167635 -0.80900311 4.7972722 2.3435988e-38
2.2675235 -1.0116616 5.1875558 2.3442445e-38
3.8669517 -0.93563253 5.3948741 2.3445674e-38
2.1808271 -1.1330863 5.4323945 2.3446391e-38
2.7545848 -0.8641274 4.76684 2.3435629e-38
3.0554435 -0.885692 4.891984 2.3437423e-38
3.9974287 -0.93645298 5.4757323 2.3447109e-38
3.1851375 -1.0329899 5.5153084 2.3447826e-38
2.8431923 -0.87233818 4.861711 2.3437064e-38
2.9124215 -0.81786382 4.6119442 2.3433118e-38
3.148782 -0.80126852 4.7241025 2.3434912e-38
3.0714257 -0.91285563 4.9546027 2.3438499e-38
2.0442142 -1.0909169 5.3088374 2.3444239e-38
2.1933165 -0.91427177 4.8194923 2.3436347e-38
3.0741765 -1.0089821 5.3733845 2.3445315e-38
2.1653435 -1.0249871 5.0740108 2.3440652e-38
1.5554626 -1.2262666 5.7617025 2.3451772e-38
1.8996004 -1.0690895 5.1376405 2.3441728e-38
2.1380548 -0.97564852 4.9099631 2.3437782e-38
2.1068993 -0.98428172 4.9225926 2.3438141e-38
2.9677966 -0.82487142 4.7118993 2.3434553e-38
3.2154157 -0.82582968 4.8033843 2.3435988e-38
2.7681847 -0.90019262 4.8942313 2.3437782e-38
3.0070012 -0.92919159 5.133687 2.3441369e-38
3.1579409 -0.97239661 5.2931466 2.3444239e-38
1.8941346 -1.2189983 5.62427 2.3449261e-38
3.6682088 -1.4034615 5.7696428 2.3451772e-38
3.6589618 -1.0214576 5.6281452 2.344962e-38
2.5174394 -0.89688092 4.7577362 2.3435271e-38
2.7878671 -0.85579783 4.7603951 2.3435629e-38
2.9296293 -0.80993372 4.5890341 2.343276e-38
2.8822069 -0.95653099 5.1183639 2.3441369e-38
3.0598817 -0.83611047 4.7477179 2.3435271e-38
2.979352 -0.88621551 4.919332 2.3438141e-38
2.0778201 -1.0033594 4.992033 2.3439217e-38
2.9437485 -0.84498709 4.7313695 2.3434912e-38
2.0876279 -1.0957831 5.3427281 2.3444956e-38
2.958076 -0.88233048 4.948595 2.3438499e-38
2.0829885 -1.006637 4.9817462 2.3438858e-38
3.0287805 -0.84858048 4.8090777 2.3436347e-38
2.2376723 -0.98710281 5.1060109 2.344101e-38
1.6534182 -1.1834195 5.6636357 2.3449979e-38
3.1542377 -0.96655238 5.2927885 2.3444239e-38
2.7592692 -0.90029049 4.8783765 2.3437423e-38
3.279325 -0.94918269 5.1808081 2.3442087e-38
3.1223013 -0.8417564 4.7940698 2.3435988e-38
3.325469 -1.0210108 5.4791307 2.3447109e-38
2.9036782 -0.90303153 4.9843364 2.3439217e-38
3.7219751 -0.9566375 5.378109 2.3445315e-38
2.230582 -0.97757471 5.0648646 2.3440293e-38
3.0663934 -0.87812752 4.8477182 2.3436706e-38
3.5153368 -1.0442107 5.5773234 2.3448544e-38
3.201036 -0.97276998 5.2432785 2.3443163e-38
3.1539304 -1.1668983 4.8762593 2.3437423e-38
3.1265814 -1.1429906 4.8899155 2.3437423e-38
1.753937 -1.2153314 5.6192303 2.3449261e-38
2.922121 -0.8473233 4.8138137 2.3436347e-38
2.8813834 -0.86435652 4.8123708 2.3436347e-38
2.7640486 -0.89125508 4.871727 2.3437423e-38
2.9660885 -0.84810072 4.806963 2.3436347e-38
1.8680352 -1.140177 5.4882736 2.3447109e-38
2.8633807 -0.93831831 5.0521622 2.3440293e-38
2.9553897 -0.86405569 4.844861 2.3436706e-38
2.0538955 -0.97136402 4.8289313 2.3436706e-38
2.9684582 -0.86312121 4.8360019 2.3436706e-38
2.8062177 -0.84184217 4.7503738 2.3435271e-38
2.798527 -0.86856759 4.790792 2.3435988e-38
2.2412412 -0.96288031 4.9937434 2.3439217e-38
3.0848606 -0.82077098 4.7506075 2.3435271e-38
2.8713033 -0.95138383 5.0822268 2.3440652e-38
2.9539127 -0.83994609 4.7351394 2.3434912e-38
2.9068873 -0.96162069 5.1416087 2.3441728e-38
2.9605722 -0.96629959 5.1863942 2.3442445e-38
2.7434359 -0.88256872 4.8323383 2.3436706e-38
2.764652 -0.89095187 4.8731613 2.3437423e-38
2.776751 -0.87824988 4.838171 2.3436706e-38
3.070426 -0.85966903 4.7719765 2.3435629e-38
2.9066145 -0.8716529 4.8823214 2.3437423e-38
2.9381804 -0.90531331 4.9800248 2.3438858e-38
2.1286149 -1.0124803 5.0562711 2.3440293e-38
2.8855581 -0.85927868 4.8360987 2.3436706e-38
2.9562895 -0.8576926 4.7927408 2.3435988e-38
1.9850633 -1.1105494 5.2973962 2.3444239e-38
3.1724756 -0.92086232 5.0222907 2.3439575e-38
