# .PCD v.7 - Point Cloud Data file format
VERSION .7
FIELDS x y z rgb
SIZE 4 4 4 4
TYPE F F F F
COUNT 1 1 1 1
WIDTH 341
HEIGHT 1
VIEWPOINT 0 0 0 1 0 0 0
POINTS 341
DATA ascii

 0.0000000 0.0000000 0.0000000 16777215
 0.0041649 -0.0115739 0.0613269 16777215
 0.0193445 -0.0204743 0.1118188 16777215
 0.0231724 -0.0216374 0.1230858 16777215
 0.0275124 -0.0251964 0.1337794 16777215
 0.0241243 -0.0217085 0.1809185 16777215
 -0.0018096 -0.0392455 0.2610423 16777215
 0.0017072 -0.0423335 0.2880671 16777215
 0.0027344 -0.0450129 0.3137737 16777215
 0.0094685 -0.0520973 0.3504059 16777215
 0.0287000 -0.0576471 0.3983336 16777215
 0.0324568 -0.0631659 0.4516018 16777215
 0.0093814 -0.0745961 0.5173112 16777215
 0.0057771 -0.0811570 0.5366624 16777215
 0.0079608 -0.0828337 0.5718295 16777215
 0.0294059 -0.0897005 0.6306776 16777215
 0.0457461 -0.0946705 0.6736315 16777215
 0.0560424 -0.1062464 0.7006909 16777215
 0.0552012 -0.1141185 0.7408067 16777215
 0.0562039 -0.1202235 0.7880813 16777215
 0.0440100 -0.1235332 0.8218225 16777215
 0.0427166 -0.1255731 0.8537346 16777215
 0.0500603 -0.1331460 0.9093836 16777215
 0.0678107 -0.1454035 0.9692878 16777215
 0.0646306 -0.1533061 1.0062350 16777215
 0.0508891 -0.1626113 1.0605417 16777215
 0.0306227 -0.1868718 1.1311756 16777215
 0.0378276 -0.1960872 1.1830506 16777215
 0.0507307 -0.1995133 1.2184079 16777215
 0.0534327 -0.2031130 1.2494373 16777215
 0.0488716 -0.2100012 1.2873237 16777215
 0.0362438 -0.2262753 1.3593518 16777215
 0.0414540 -0.2308267 1.3961183 16777215
 0.0655816 -0.2305066 1.4273560 16777215
 0.0842446 -0.2413060 1.4535983 16777215
 0.0795870 -0.2566552 1.5327615 16777215
 0.0811545 -0.2650601 1.5650707 16777215
 0.0759509 -0.2704401 1.5973668 16777215
 0.0777682 -0.2722656 1.6298373 16777215
 0.0920318 -0.2754754 1.6887927 16777215
 0.1137367 -0.2826691 1.7521926 16777215
 0.1121411 -0.2892798 1.7920084 16777215
 0.1069099 -0.2998564 1.8358136 16777215
 0.0914533 -0.3124603 1.8807703 16777215
 0.0857263 -0.3181601 1.9047804 16777215
 0.0815862 -0.3267004 1.9377432 16777215
 0.0878545 -0.3383805 2.0344114 16777215
 0.0907261 -0.3466772 2.0678234 16777215
 0.0866820 -0.3519016 2.1082482 16777215
 0.0751402 -0.3586292 2.1667264 16777215
 0.0599061 -0.3676783 2.2156322 16777215
 0.0721249 -0.3670788 2.2474570 16777215
 0.0769244 -0.3606037 2.2633421 16777215
 0.0889571 -0.3739226 2.2896640 16777215
 0.0866369 -0.3818887 2.3079557 16777215
 0.0616590 -0.3918314 2.3868856 16777215
 0.0545911 -0.3951325 2.4104323 16777215
 0.0562818 -0.4085480 2.4719362 16777215
 0.0724722 -0.4241620 2.5273747 16777215
 0.0786091 -0.4299219 2.5507741 16777215
 0.0786909 -0.4396940 2.6110985 16777215
 0.0760711 -0.4466184 2.6385522 16777215
 0.0702796 -0.4521063 2.6642003 16777215
 0.0703880 -0.4544241 2.6840823 16777215
 0.0637841 -0.4550145 2.7126250 16777215
 0.0682515 -0.4636095 2.7928956 16777215
 0.0751245 -0.4742308 2.8308518 16777215
 0.0647188 -0.4802735 2.8689525 16777215
 0.0535064 -0.4880354 2.9190593 16777215
 0.0480175 -0.5016533 2.9562626 16777215
 0.0456728 -0.5049511 2.9765313 16777215
 0.0434823 -0.5112256 3.0037303 16777215
 0.0481448 -0.5209425 3.0582566 16777215
 0.0547401 -0.5276576 3.0875666 16777215
 0.0565518 -0.5292832 3.1092210 16777215
 0.0553257 -0.5330881 3.1384447 16777215
 0.0443844 -0.5414359 3.2141435 16777215
 0.0407229 -0.5434042 3.2373405 16777215
 0.0390241 -0.5439566 3.2650237 16777215
 0.0437518 -0.5447807 3.3134193 16777215
 0.0467556 -0.5540721 3.3501871 16777215
 0.0547287 -0.5658894 3.3853230 16777215
 0.0529681 -0.5702217 3.4165473 16777215
 0.0470114 -0.5696676 3.4542208 16777215
 0.0322656 -0.5750080 3.4812498 16777215
 0.0286940 -0.5816613 3.5134819 16777215
 0.0238636 -0.5832261 3.5424306 16777215
 0.0331237 -0.5913138 3.5864701 16777215
 0.0489818 -0.6095934 3.6153355 16777215
 0.0503643 -0.6151041 3.6330585 16777215
 0.0462825 -0.6195754 3.6752613 16777215
 0.0427881 -0.6231049 3.7039523 16777215
 0.0431117 -0.6340835 3.7272611 16777215
 0.0438761 -0.6391683 3.7540221 16777215
 0.0449075 -0.6405972 3.7863111 16777215
 0.0601355 -0.6470104 3.8225329 16777215
 0.0767736 -0.6512499 3.8438959 16777215
 0.0794125 -0.6554551 3.8642881 16777215
 0.0849609 -0.6605548 3.9147296 16777215
 0.0681782 -0.6688422 3.9668484 16777215
 0.0649177 -0.6732048 3.9932821 16777215
 0.0633398 -0.6791056 4.0196815 16777215
 0.0689940 -0.6807908 4.0610809 16777215
 0.0872003 -0.6994078 4.1110969 16777215
 0.0859934 -0.7007248 4.1452293 16777215
 0.0801322 -0.7052373 4.1895013 16777215
 0.0700986 -0.7090030 4.2323604 16777215
 0.0695896 -0.7128486 4.2684774 16777215
 0.0805819 -0.7147973 4.3030181 16777215
 0.1022441 -0.7328171 4.3518968 16777215
 0.1068107 -0.7384537 4.3804860 16777215
 0.1010473 -0.7383714 4.4185777 16777215
 0.0956845 -0.7498372 4.4641752 16777215
 0.0941727 -0.7454424 4.4851856 16777215
 0.0961831 -0.7497737 4.5031729 16777215
 0.1112139 -0.7651526 4.5584669 16777215
 0.1183203 -0.7719139 4.5806756 16777215
 0.1216184 -0.7763360 4.6078510 16777215
 0.1163317 -0.7815289 4.6529608 16777215
 0.1135474 -0.7858882 4.6955147 16777215
 0.1080516 -0.7939402 4.7265763 16777215
 0.1055322 -0.8048438 4.7861233 16777215
 0.1114281 -0.8129781 4.8301554 16777215
 0.1131275 -0.8235113 4.8744464 16777215
 0.1097057 -0.8289255 4.9200511 16777215
 0.1097291 -0.8349606 4.9586835 16777215
 0.1059730 -0.8420074 4.9990745 16777215
 0.1036904 -0.8476838 5.0455642 16777215
 0.1125093 -0.8534788 5.0853844 16777215
 0.1200439 -0.8661899 5.1429706 16777215
 0.1152549 -0.8712824 5.1826067 16777215
 0.1116134 -0.8797835 5.2309766 16777215
 0.1073558 -0.8856127 5.2603493 16777215
 0.1016467 -0.8951763 5.3094840 16777215
 0.0996379 -0.9026582 5.3569126 16777215
 0.1059809 -0.9108365 5.3881774 16777215
 0.1049635 -0.9191616 5.4425397 16777215
 0.0997038 -0.9268614 5.4910817 16777215
 0.1003181 -0.9329156 5.5227060 16777215
 0.1037506 -0.9404527 5.5693569 16777215
 0.1083470 -0.9481279 5.6062069 16777215
 0.1180185 -0.9520808 5.6348462 16777215
 0.1174843 -0.9548314 5.6655264 16777215
 0.1053576 -0.9596359 5.7180567 16777215
 0.0971300 -0.9648122 5.7420359 16777215
 0.0902064 -0.9682028 5.7725310 16777215
 0.0866818 -0.9728400 5.8172040 16777215
 0.0920566 -0.9807129 5.8715258 16777215
 0.0945492 -0.9885221 5.8913131 16777215
 0.0930467 -0.9906543 5.9175358 16777215
 0.0806621 -0.9961842 5.9664931 16777215
 0.0771019 -0.9997861 5.9930162 16777215
 0.0722203 -1.0066274 6.0204468 16777215
 0.0671712 -1.0155188 6.0745120 16777215
 0.0684930 -1.0213593 6.1161742 16777215
 0.0642122 -1.0288197 6.1455531 16777215
 0.0557232 -1.0362909 6.1906080 16777215
 0.0471988 -1.0456158 6.2369437 16777215
 0.0488003 -1.0520438 6.2844305 16777215
 0.0545805 -1.0630056 6.3377075 16777215
 0.0556958 -1.0703552 6.3844714 16777215
 0.0521164 -1.0770452 6.4318519 16777215
 0.0502679 -1.0805717 6.4484668 16777215
 0.0493665 -1.0875430 6.4713459 16777215
 0.0531398 -1.0964208 6.5139761 16777215
 0.0602955 -1.1026764 6.5460320 16777215
 0.0624161 -1.1132594 6.5863023 16777215
 0.0619657 -1.1159061 6.6120987 16777215
 0.0581679 -1.1190732 6.6518230 16777215
 0.0560153 -1.1265337 6.6917443 16777215
 0.0571876 -1.1342468 6.7406740 16777215
 0.0636065 -1.1427323 6.7805200 16777215
 0.0654978 -1.1503587 6.8117161 16777215
 0.0641928 -1.1546050 6.8424349 16777215
 0.0575449 -1.1617097 6.8923516 16777215
 0.0557711 -1.1754735 6.9214182 16777215
 0.0575559 -1.1829015 6.9578013 16777215
 0.0618697 -1.1890264 7.0288138 16777215
 0.0682236 -1.2008774 7.0659056 16777215
 0.0653127 -1.2066045 7.0986118 16777215
 0.0594895 -1.2104427 7.1403518 16777215
 0.0554157 -1.2182636 7.1876016 16777215
 0.0550482 -1.2230663 7.2265224 16777215
 0.0610101 -1.2253890 7.2669444 16777215
 0.0637628 -1.2368083 7.2996273 16777215
 0.0601283 -1.2391859 7.3151622 16777215
 0.0548725 -1.2439139 7.3426995 16777215
 0.0448996 -1.2502191 7.3774357 16777215
 0.0438372 -1.2577900 7.4096785 16777215
 0.0438062 -1.2652149 7.4506178 16777215
 0.0507994 -1.2724013 7.4937782 16777215
 0.0542253 -1.2801203 7.5193057 16777215
 0.0466728 -1.2886459 7.5614510 16777215
 0.0408521 -1.2953234 7.5937147 16777215
 0.0325548 -1.2995490 7.6320834 16777215
 0.0318402 -1.3038211 7.6714225 16777215
 0.0354419 -1.3118182 7.7087255 16777215
 0.0348154 -1.3209857 7.7436213 16777215
 0.0260634 -1.3265777 7.7802596 16777215
 0.0285169 -1.3334888 7.8124619 16777215
 0.0246450 -1.3364917 7.8502312 16777215
 0.0238948 -1.3412441 7.8848763 16777215
 0.0245987 -1.3480022 7.9134574 16777215
 0.0242401 -1.3563700 7.9493003 16777215
 0.0215046 -1.3594251 7.9807081 16777215
 0.0195160 -1.3629971 8.0097351 16777215
 0.0143105 -1.3681916 8.0332117 16777215
 0.0095310 -1.3733320 8.0628195 16777215
 0.0099494 -1.3773301 8.1029272 16777215
 0.0167464 -1.3875599 8.1264629 16777215
 0.0195298 -1.3910522 8.1499338 16777215
 0.0178474 -1.3951354 8.1848526 16777215
 0.0113107 -1.4069787 8.2228003 16777215
 0.0092899 -1.4117984 8.2467899 16777215
 0.0091097 -1.4167800 8.2816210 16777215
 0.0184084 -1.4272567 8.3169289 16777215
 0.0176002 -1.4284875 8.3374681 16777215
 0.0130013 -1.4301171 8.3745241 16777215
 0.0058033 -1.4353749 8.3962841 16777215
 0.0016270 -1.4399899 8.4188318 16777215
 -0.0035996 -1.4418796 8.4548225 16777215
 -0.0005455 -1.4470532 8.4871111 16777215
 0.0134294 -1.4567933 8.5138445 16777215
 0.0118769 -1.4559590 8.5444136 16777215
 0.0057119 -1.4564190 8.5805979 16777215
 -0.0040954 -1.4662504 8.6115208 16777215
 -0.0067493 -1.4725384 8.6350460 16777215
 -0.0091338 -1.4787842 8.6596365 16777215
 -0.0063425 -1.4828109 8.6983328 16777215
 -0.0079707 -1.4924555 8.7218399 16777215
 -0.0102561 -1.4959880 8.7370863 16777215
 -0.0138404 -1.5048732 8.7818012 16777215
 -0.0188864 -1.5119112 8.8110523 16777215
 -0.0232630 -1.5140944 8.8323946 16777215
 -0.0196134 -1.5178382 8.8644571 16777215
 -0.0120063 -1.5248874 8.8924055 16777215
 -0.0129867 -1.5270879 8.9124746 16777215
 -0.0141904 -1.5286005 8.9409218 16777215
 -0.0215889 -1.5335553 8.9825287 16777215
 -0.0288324 -1.5414810 9.0001802 16777215
 -0.0327218 -1.5449991 9.0169888 16777215
 -0.0325586 -1.5472187 9.0352774 16777215
 -0.0316470 -1.5498427 9.0742559 16777215
 -0.0261155 -1.5564935 9.1045847 16777215
 -0.0251544 -1.5574789 9.1233463 16777215
 -0.0278560 -1.5594233 9.1545801 16777215
 -0.0294359 -1.5624666 9.1861172 16777215
 -0.0290303 -1.5657856 9.2135992 16777215
 -0.0275826 -1.5689903 9.2387686 16777215
 -0.0255374 -1.5733892 9.2777109 16777215
 -0.0267452 -1.5777584 9.3053513 16777215
 -0.0320972 -1.5804348 9.3403406 16777215
 -0.0350758 -1.5867722 9.3666553 16777215
 -0.0375929 -1.5893300 9.3893375 16777215
 -0.0396963 -1.5937935 9.4222431 16777215
 -0.0403932 -1.5993044 9.4484100 16777215
 -0.0370190 -1.6057971 9.4675674 16777215
 -0.0349329 -1.6065869 9.4912386 16777215
 -0.0364128 -1.6097394 9.5171881 16777215
 -0.0460310 -1.6194429 9.5492716 16777215
 -0.0501630 -1.6233112 9.5691071 16777215
 -0.0550965 -1.6251949 9.5936403 16777215
 -0.0570248 -1.6329111 9.6293783 16777215
 -0.0583200 -1.6413990 9.6564341 16777215
 -0.0665596 -1.6478345 9.6859961 16777215
 -0.0810623 -1.6506904 9.7134380 16777215
 -0.0843965 -1.6544927 9.7349606 16777215
 -0.0856030 -1.6596103 9.7761984 16777215
 -0.0774496 -1.6666260 9.7982187 16777215
 -0.0735768 -1.6717222 9.8336859 16777215
 -0.0765754 -1.6763403 9.8641615 16777215
 -0.0800015 -1.6810145 9.8959942 16777215
 -0.0757679 -1.6839050 9.9275827 16777215
 -0.0755920 -1.6872491 9.9613934 16777215
 -0.0717219 -1.6954514 9.9890156 16777215
 -0.0773091 -1.6991289 10.0207529 16777215
 -0.0856497 -1.7047923 10.0592480 16777215
 -0.0943767 -1.7105148 10.1003132 16777215
 -0.0986876 -1.7140577 10.1395302 16777215
 -0.0968437 -1.7207636 10.1761408 16777215
 -0.0984874 -1.7235705 10.2146130 16777215
 -0.1008999 -1.7289203 10.2485046 16777215
 -0.1012247 -1.7336336 10.2744207 16777215
 -0.1040840 -1.7381402 10.3006744 16777215
 -0.1029702 -1.7462852 10.3405437 16777215
 -0.0979795 -1.7530248 10.3630476 16777215
 -0.0994715 -1.7550073 10.3786039 16777215
 -0.1036394 -1.7571360 10.4035835 16777215
 -0.1084102 -1.7615494 10.4222078 16777215
 -0.1131483 -1.7660307 10.4433222 16777215
 -0.1141788 -1.7709854 10.4753180 16777215
 -0.1140842 -1.7736409 10.4957371 16777215
 -0.1192271 -1.7779782 10.5394516 16777215
 -0.1231435 -1.7832665 10.5676966 16777215
 -0.1234957 -1.7883136 10.5864935 16777215
 -0.1259476 -1.7965657 10.6129503 16777215
 -0.1220920 -1.7968173 10.6257772 16777215
 -0.1221655 -1.7992102 10.6413040 16777215
 -0.1268402 -1.8028915 10.6651764 16777215
 -0.1285883 -1.8034521 10.6785965 16777215
 -0.1340573 -1.8057078 10.7070513 16777215
 -0.1299671 -1.8106632 10.7295380 16777215
 -0.1307740 -1.8127422 10.7448511 16777215
 -0.1344657 -1.8174233 10.7693548 16777215
 -0.1374991 -1.8159773 10.7809534 16777215
 -0.1381767 -1.8172872 10.7905588 16777215
 -0.1384453 -1.8200977 10.7947760 16777215
 -0.1360872 -1.8203681 10.7960720 16777215
 -0.1294417 -1.8226925 10.7950602 16777215
 -0.1261983 -1.8219668 10.7948732 16777215
 -0.1234812 -1.8227568 10.7988424 16777215
 -0.1245553 -1.8242857 10.8004961 16777215
 -0.1255575 -1.8222388 10.8011818 16777215
 -0.1237643 -1.8245424 10.8022261 16777215
 -0.1256174 -1.8243136 10.8037701 16777215
 -0.1338205 -1.8240192 10.7988873 16777215
 -0.1347109 -1.8214353 10.7999353 16777215
 -0.1326665 -1.8204086 10.8002253 16777215
 -0.1407506 -1.8238422 10.7994595 16777215
 -0.1379321 -1.8249699 10.7993402 16777215
 -0.1367347 -1.8248771 10.7982721 16777215
 -0.1383773 -1.8251945 10.7986145 16777215
 -0.1406927 -1.8254478 10.7986889 16777215
 -0.1407545 -1.8253394 10.7994614 16777215
 -0.1422597 -1.8250728 10.7996197 16777215
 -0.1443985 -1.8258291 10.7992821 16777215
 -0.1437514 -1.8265591 10.7987099 16777215
 -0.1440338 -1.8258221 10.7988415 16777215
 -0.1451020 -1.8255811 10.7987976 16777215
 -0.1431695 -1.8249408 10.7997103 16777215
 -0.1458631 -1.8256495 10.7995348 16777215
 -0.1450812 -1.8260710 10.7993393 16777215
 -0.1453933 -1.8251793 10.8000402 16777215
 -0.1460003 -1.8254068 10.8011675 16777215
 -0.1470784 -1.8253267 10.8013878 16777215
 -0.1470661 -1.8265181 10.8003244 16777215
 -0.1448817 -1.8278096 10.7969656 16777215
 -0.1516709 -1.8272039 10.7920170 16777215
 -0.1512365 -1.8284197 10.7875652 16777215
 -0.1516080 -1.8303925 10.7854452 16777215
 -0.1536136 -1.8316679 10.7857771 16777215
