# .PCD v.7 - Point Cloud Data file format
VERSION .7
FIELDS x y z rgb
SIZE 4 4 4 4
TYPE F F F F
COUNT 1 1 1 1
WIDTH 127
HEIGHT 1
VIEWPOINT 0 0 0 1 0 0 0
POINTS 127
DATA ascii

 0.0000000 0.0000000 0.0000000 16777215
 0.0061473 -0.0025169 0.0127793 16777215
 0.0105750 -0.0049455 0.0224824 16777215
 0.0142938 -0.0067040 0.0330950 16777215
 0.0279767 -0.0130993 0.0679279 16777215
 0.0312672 -0.0145286 0.0776740 16777215
 0.0363766 -0.0185807 0.0929052 16777215
 0.0450854 -0.0238562 0.1141987 16777215
 0.0623486 -0.0292476 0.1556972 16777215
 0.0672051 -0.0337852 0.1711923 16777215
 0.0751352 -0.0377325 0.1920190 16777215
 0.0825177 -0.0410663 0.2147754 16777215
 0.0887388 -0.0460240 0.2391752 16777215
 0.0941407 -0.0517246 0.2576988 16777215
 0.1049844 -0.0543328 0.2823510 16777215
 0.1149355 -0.0566932 0.3016321 16777215
 0.1243776 -0.0627535 0.3198548 16777215
 0.1346310 -0.0675828 0.3438109 16777215
 0.1457255 -0.0706405 0.3728746 16777215
 0.1526186 -0.0742781 0.3958509 16777215
 0.1602626 -0.0798349 0.4213810 16777215
 0.1699619 -0.0820716 0.4441527 16777215
 0.1804345 -0.0876203 0.4696236 16777215
 0.1910441 -0.0954695 0.4969243 16777215
 0.2003090 -0.0973063 0.5301518 16777215
 0.2091216 -0.1020090 0.5576436 16777215
 0.2180301 -0.1095229 0.5879231 16777215
 0.2290058 -0.1132585 0.6170309 16777215
 0.2383478 -0.1200371 0.6468664 16777215
 0.2459165 -0.1255572 0.6791614 16777215
 0.2531505 -0.1295699 0.7131632 16777215
 0.2625150 -0.1387933 0.7460176 16777215
 0.2724071 -0.1422829 0.7726295 16777215
 0.2827824 -0.1486932 0.7989979 16777215
 0.2912413 -0.1545544 0.8295320 16777215
 0.2996990 -0.1586882 0.8598748 16777215
 0.3081477 -0.1669699 0.8883412 16777215
 0.3181993 -0.1701750 0.9189570 16777215
 0.3263311 -0.1780823 0.9451423 16777215
 0.3337595 -0.1820611 0.9762171 16777215
 0.3412837 -0.1883115 1.0116876 16777215
 0.3473648 -0.1945491 1.0387897 16777215
 0.3608698 -0.2004518 1.0837476 16777215
 0.3677652 -0.2055160 1.1133871 16777215
 0.3724221 -0.2070226 1.1408372 16777215
 0.3749769 -0.2117942 1.1686555 16777215
 0.3796272 -0.2149871 1.1931050 16777215
 0.3868667 -0.2176533 1.2184329 16777215
 0.3908418 -0.2222905 1.2349522 16777215
 0.3959978 -0.2263333 1.2574356 16777215
 0.4009559 -0.2291817 1.2823013 16777215
 0.4062390 -0.2380125 1.3172038 16777215
 0.4204378 -0.2477469 1.3700440 16777215
 0.4253113 -0.2530739 1.4004526 16777215
 0.4319862 -0.2592644 1.4297482 16777215
 0.4369831 -0.2635279 1.4607074 16777215
 0.4449180 -0.2693316 1.4993892 16777215
 0.4503948 -0.2742732 1.5294195 16777215
 0.4553258 -0.2801810 1.5650706 16777215
 0.4618558 -0.2838884 1.6001863 16777215
 0.4638683 -0.2915911 1.6273739 16777215
 0.4657120 -0.2937871 1.6579471 16777215
 0.4657208 -0.3005314 1.6883379 16777215
 0.4707466 -0.3032090 1.7166016 16777215
 0.4746332 -0.3073332 1.7395186 16777215
 0.4765414 -0.3105583 1.7627250 16777215
 0.4827472 -0.3139333 1.7913063 16777215
 0.4850123 -0.3195053 1.8125186 16777215
 0.4895922 -0.3228900 1.8365446 16777215
 0.4929523 -0.3254650 1.8538480 16777215
 0.4948178 -0.3282619 1.8709692 16777215
 0.4981170 -0.3286146 1.8913429 16777215
 0.4976566 -0.3327115 1.9120460 16777215
 0.5010281 -0.3361506 1.9344195 16777215
 0.5051440 -0.3380294 1.9528908 16777215
 0.5055960 -0.3429483 1.9684739 16777215
 0.5068123 -0.3465441 1.9894116 16777215
 0.5071670 -0.3500799 2.0129499 16777215
 0.5092015 -0.3553365 2.0358310 16777215
 0.5126944 -0.3589915 2.0604544 16777215
 0.5162038 -0.3634982 2.0873091 16777215
 0.5172961 -0.3675644 2.1146779 16777215
 0.5185606 -0.3723176 2.1356456 16777215
 0.5219156 -0.3735155 2.1528497 16777215
 0.5237775 -0.3797305 2.1705904 16777215
 0.5250960 -0.3825314 2.1876187 16777215
 0.5272754 -0.3853590 2.2078979 16777215
 0.5290352 -0.3907160 2.2242169 16777215
 0.5318372 -0.3955705 2.2579069 16777215
 0.5328223 -0.3984036 2.2754602 16777215
 0.5312582 -0.4011176 2.2928758 16777215
 0.5312811 -0.4051583 2.3097932 16777215
 0.5324628 -0.4082975 2.3228087 16777215
 0.5332140 -0.4115425 2.3387885 16777215
 0.5289962 -0.4170375 2.3637540 16777215
 0.5289474 -0.4200056 2.3755980 16777215
 0.5304027 -0.4204103 2.3876429 16777215
 0.5307667 -0.4239479 2.3987932 16777215
 0.5297853 -0.4255536 2.4088266 16777215
 0.5258864 -0.4285716 2.4208317 16777215
 0.5262432 -0.4285395 2.4279675 16777215
 0.5298361 -0.4306984 2.4360080 16777215
 0.5267259 -0.4336185 2.4429638 16777215
 0.5243434 -0.4367090 2.4449670 16777215
 0.5246198 -0.4367660 2.4455705 16777215
 0.5298576 -0.4358101 2.4470804 16777215
 0.5289536 -0.4362457 2.4468646 16777215
 0.5288559 -0.4366204 2.4470210 16777215
 0.5263395 -0.4362074 2.4460750 16777215
 0.5259615 -0.4368427 2.4458129 16777215
 0.5260662 -0.4364923 2.4455471 16777215
 0.5261212 -0.4362485 2.4455693 16777215
 0.5264780 -0.4365582 2.4458375 16777215
 0.5270970 -0.4363786 2.4454608 16777215
 0.5272696 -0.4368911 2.4445586 16777215
 0.5270682 -0.4367250 2.4441745 16777215
 0.5272053 -0.4365842 2.4443383 16777215
 0.5260040 -0.4365723 2.4441152 16777215
 0.5251053 -0.4366752 2.4441643 16777215
 0.5246758 -0.4369261 2.4442630 16777215
 0.5255270 -0.4380437 2.4466381 16777215
 0.5214285 -0.4371582 2.4463921 16777215
 0.5223798 -0.4373082 2.4503913 16777215
 0.5204204 -0.4344848 2.4547353 16777215
 0.5204266 -0.4245374 2.4625835 16777215
 0.5176559 -0.4112158 2.4686120 16777215
 0.5035725 -0.4165181 2.4669323 16777215
