# .PCD v.7 - Point Cloud Data file format
VERSION .7
FIELDS x y z rgb
SIZE 4 4 4 4
TYPE F F F F
COUNT 1 1 1 1
WIDTH 1189
HEIGHT 1
VIEWPOINT 0 0 0 1 0 0 0
POINTS 1189
DATA ascii
0.1003027 0.0318369 0.4577739 16711746
-0.0349429 0.0192372 0.4907612 16711746
-0.1597250 -0.0045172 0.6464874 16711746
0.3223353 0.0197593 0.4765837 16711746
-0.3192586 0.0043830 0.5930958 16711746
0.0049867 0.0155674 0.5534213 16711746
-0.3562792 0.0031590 0.7362701 16711746
-0.2296133 -0.2454749 0.5934092 16711746
-0.0123888 0.0324510 0.4559601 16711746
0.0578067 -0.0223343 0.7587844 16711746
0.0180351 0.0131486 0.5744534 16711746
0.2094976 0.0119036 0.5601316 16711746
-0.1299216 -0.3778094 0.9537857 16711746
-0.2540708 -0.2588903 0.6180361 16711746
0.0479536 0.0107770 0.5891631 16711746
0.0695681 -0.0357364 0.8431601 16711746
0.2198497 0.0141665 0.6072365 16711746
-0.6468425 -0.0237986 0.9596792 16711746
0.0216229 0.0253319 0.4888542 16711746
-0.2114847 -0.0218506 0.8359560 16711746
-0.0781296 -0.0171096 0.7223777 16711746
-0.1485615 -0.0064761 0.6311729 16711746
0.1279709 0.0239262 0.5558594 16711746
0.3069711 0.0019570 0.6005970 16711746
0.4235371 0.0014986 0.6434010 16711746
-0.2662984 -0.0095269 0.7027667 16711746
-0.2111246 -0.3758312 1.0908533 16711746
-0.2369038 -0.4118221 1.0607241 16711746
0.2121423 0.0341508 0.4745064 16711746
0.1573970 0.0321189 0.4791120 16711746
-0.0135914 0.0330145 0.4569699 16711746
-0.1246165 0.0202863 0.5253487 16711746
-0.0876640 0.0293460 0.4595841 16711746
0.2279417 0.0242816 0.5249568 16711746
-0.0779040 -0.0170459 0.7220553 16711746
-0.2966424 -0.0122088 0.7243143 16711746
0.2842270 0.0268360 0.4501117 16711746
-0.5938935 -0.0399598 0.9739596 16711746
0.1291054 0.0222664 0.5643905 16711746
-0.2323144 -0.3672288 1.0316783 16711746
-0.1661697 0.0174565 0.5248873 16711746
-0.0329319 0.0345665 0.4303138 16711746
-0.1361771 -0.0039733 0.6623655 16711746
0.2255752 0.0258815 0.5428621 16711746
-0.2612616 -0.3331146 0.9649429 16711746
-0.3410461 -0.4127911 1.1137216 16711746
-0.1781490 -0.3115095 0.8951948 16711746
0.0778934 -0.0637898 0.9943209 16711746
0.0384760 0.0243278 0.4986166 16711746
-0.2702295 -0.0095586 0.7076856 16711746
-0.3873194 -0.0148501 0.7836399 16711746
0.1572797 0.0130895 0.6116384 16711746
-0.5846463 -0.6005732 1.5852331 16711746
0.0783212 0.0263388 0.4995075 16711746
0.1283122 0.0203809 0.5588544 16711746
-0.0664428 0.0129382 0.5390660 16711746
0.1462640 0.0271227 0.4868484 16711746
-0.0004001 0.0199232 0.5373774 16711746
-0.3647085 -0.5252392 1.4686942 16711746
0.1813543 0.0251996 0.5502573 16711746
-0.4107155 -0.5645941 1.4250761 16711746
-0.0318119 0.0182909 0.5354564 16711746
-0.5068970 -0.5438325 1.4871601 16711746
0.2109391 0.0326765 0.4715335 16711746
-0.4973050 -0.0907067 1.2131010 16711746
0.2579552 0.0240278 0.4403824 16711746
-0.6312153 -0.6745933 1.7370307 16711746
0.6395215 -0.1359411 0.8071898 16711746
-0.9495220 -0.6137450 1.6674097 16711746
-2.9884648 -1.4582314 3.6250210 16711746
-2.4290199 -1.2583174 3.3887248 16711746
-3.3213928 -1.2541798 3.8577235 16711746
-3.8145204 -1.4215732 3.9919415 16711746
-2.7707703 -1.4234750 3.5918894 16711746
-0.4656094 -0.6145658 3.7966471 16711746
-3.1862898 -1.0486629 3.6730199 16711746
-6.1754642 -0.3439442 4.1219049 16711746
-1.1272926 -0.7686816 4.2000952 16711746
-1.1472638 -0.9689840 2.6046200 16711746
0.1434544 -0.0351155 0.8515608 16711746
0.6415653 -0.4191859 1.0892193 16711746
-0.7275273 -0.0696175 1.2483447 16711746
0.1208728 0.0032372 0.6371903 16711746
-0.2828465 -0.0327143 0.8454049 16711746
0.5467560 -0.3478851 0.9507374 16711746
-2.6563091 -1.2091322 3.7255449 16711746
1.6015911 -0.6563492 1.2001588 16711746
3.6780472 -1.2988155 2.8471651 16711746
-2.5284491 -1.4823240 3.5544233 16711746
1.4204329 -0.1956749 1.1627673 16711746
3.0531790 -0.5860431 2.6514621 16711746
0.0669579 -0.3113404 1.1180918 16711746
0.4541022 -0.3366537 0.9246972 16711746
-0.9549891 -0.6816719 3.0579026 16711746
0.2459457 -0.2944887 1.1732817 16711746
-1.3162566 -0.5159656 3.5978611 16711746
0.6603287 -0.4823431 1.3590541 16711746
-1.5078845 -1.1690636 3.2979248 16711746
-0.0278666 0.0147989 0.5194235 16711746
0.0637557 0.0251485 0.5435387 16711746
0.1161401 0.0233325 0.4835567 16711746
-0.0264494 -0.0075934 0.6906902 16711746
0.0028068 -0.0291964 0.8276234 16711746
-0.2304235 0.0051016 0.5865452 16711746
0.1061341 0.0215605 0.5069314 16711746
0.1608137 0.0247411 0.5652397 16711746
0.0298840 0.0292043 0.4574833 16711746
0.0837848 0.0286742 0.4793104 16711746
0.0295996 0.0272565 0.4735557 16711746
0.0161927 0.0225830 0.5036696 16711746
-0.0892636 -0.0619845 0.9875523 16711746
-0.1432404 -0.0416130 0.8332120 16711746
-0.1892288 -0.0022245 0.6549727 16711746
0.3342049 0.0032736 0.5846075 16711746
0.1546965 -0.0103974 0.7324917 16711746
0.1944045 0.0145314 0.5986161 16711746
0.0807025 -0.0101820 0.6749377 16711746
0.1037265 0.0307998 0.4937826 16711746
-0.2787003 -0.1436015 1.4765940 16711746
-0.1852341 -0.0201880 0.7711959 16711746
-0.1171622 0.0206399 0.5162050 16711746
-0.3275138 -0.0325216 0.6372725 16711746
-0.2557048 0.0121583 0.6682575 16711746
0.0477688 0.0075435 0.5545812 16711746
0.0650749 0.0241263 0.5425137 16711746
-0.1012332 0.0044020 0.4387155 16711746
0.0028931 0.0180581 0.5298051 16711746
0.1659138 0.0099813 0.6181082 16711746
0.1429938 -0.0024776 0.6516054 16711746
-0.0396252 0.0128954 0.5488429 16711746
-0.0014538 0.0037712 0.6064554 16711746
0.0785165 0.0270681 0.5082982 16711746
-0.2897414 0.0002939 0.6544916 16711746
0.1118278 0.0223867 0.5207908 16711746
-0.1991117 0.0025312 0.6127793 16711746
-0.2557565 -0.2741350 0.8895226 16711746
0.1136849 0.0221859 0.4822480 16711746
0.1454074 -0.0044349 0.6483555 16711746
0.2412285 0.0003151 0.6285630 16711746
0.0784673 -0.0081843 0.6927619 16711746
0.1013943 0.0192366 0.5753564 16711746
-0.2411088 -0.0384531 0.8784024 16711746
0.2421055 -0.0156504 0.7650512 16711746
-0.0050274 0.0060165 0.6133426 16711746
0.2195974 0.0209512 0.5278244 16711746
0.3176077 0.0023520 0.6967354 16711746
-0.6607142 -0.7397395 1.8752491 16711746
-0.1340557 -0.0043587 0.6571603 16711746
-0.0585626 -0.0080662 0.6788623 16711746
0.1812164 0.0244422 0.5278102 16711746
-0.0224660 0.0173100 0.5299031 16711746
0.2690870 -0.2993342 0.8966246 16711746
-0.0348279 0.0157393 0.5301206 16711746
-0.0365749 -0.2675487 1.1256647 16711746
0.0882172 -0.0010166 0.6463616 16711746
0.2862385 -0.0032674 0.6859336 16711746
-0.4124548 -0.5535897 1.5393519 16711746
0.0431172 -0.3788460 1.4592947 16711746
-0.7248385 -0.6145667 1.7642391 16711746
0.2908692 -0.0014924 0.6953129 16711746
0.2038627 0.0044113 0.5933678 16711746
-0.9130922 -0.8903947 2.2444015 16711746
0.4751722 -0.3193911 0.9283324 16711746
-1.1379507 -0.8821613 1.9913540 16711746
-1.4562974 -0.9819469 2.4074986 16711746
-0.5756464 -0.5174085 2.3663936 16711746
0.3436662 -0.2580059 0.8211097 16711746
-1.9392747 -1.8217192 6.1013374 16711746
-4.0792594 -0.7026655 3.1267898 16711746
0.0420230 -0.0454791 0.9225289 16711746
-2.4077566 -1.4031950 3.4535384 16711746
-0.8848828 -0.9057640 3.5715113 16711746
-1.1722525 -0.7137766 4.4337001 16711746
-0.4523174 -0.4794643 3.2991996 16711746
-1.7735748 -1.3465565 3.2190323 16711746
0.3209693 -0.0075541 0.6678276 16711746
-0.4903124 -0.1359803 1.4574442 16711746
0.2032484 -0.1047199 1.1863400 16711746
4.4518385 -1.4964375 3.6086338 16711746
0.4731000 -0.3710993 1.1597533 16711746
0.4457916 -0.3285049 1.1022893 16711746
-1.4163681 -1.0112660 4.1631246 16711746
0.5072589 -0.3308342 0.9491960 16711746
-1.4186931 -0.9473292 3.8946214 16711746
0.2085937 -0.0168185 0.7855152 16711746
-0.0044424 0.0010165 0.6325329 16711746
-0.0284589 -0.3417025 2.0030954 16711746
-1.0031028 -0.9821565 3.3117218 16711746
0.7066345 -0.2081901 0.7567015 16711746
0.0587258 -0.0069609 0.6872790 16711746
0.0656332 0.0224002 0.5375777 16711746
0.2586948 -0.0288977 0.8121158 16711746
0.2907467 -0.0016951 0.6949160 16711746
-0.4374208 -0.1230945 1.4164956 16711746
0.2101428 0.0203835 0.5957371 16711746
0.2314252 0.0056843 0.6223619 16711746
0.0000599 0.0207981 0.5344531 16711746
-0.1174106 -0.3646569 1.5501435 16711746
-0.0070227 -0.0075934 0.6693727 16711746
-0.3536611 -0.4960732 1.3910574 16711746
0.1708522 0.0284443 0.5489644 16711746
-0.1274076 -0.3818314 1.6102034 16711746
-1.8412677 -1.1867894 2.5866437 16711746
-0.5423988 -0.0420808 0.9373595 16711746
0.1760960 -0.0972426 1.0800840 16711746
-0.1823227 -0.0717454 1.0610317 16711746
-0.2996051 -0.0033910 0.6770891 16711746
-0.1597641 -0.1270142 1.3912978 16711746
-0.2124228 -0.1222430 1.3202270 16711746
-0.3437304 -0.0186659 0.7409470 16711746
0.0234991 -0.0088898 0.6767216 16711746
-0.8396104 -0.1326804 1.4767333 16711746
0.2600905 -0.0279433 0.8160487 16711746
0.0237932 -0.0095032 0.6758203 16711746
0.2474799 0.0077375 0.6186656 16711746
0.0875581 -0.0098027 0.7006319 16711746
0.2294509 -0.0077168 0.7216591 16711746
-0.3718333 -0.0040911 0.6625587 16711746
-0.0039820 0.0144850 0.5433640 16711746
-0.1122993 0.0192737 0.5120353 16711746
0.2583953 -0.0037112 0.7266735 16711746
-0.3215097 0.0053304 0.6762234 16711746
0.2872201 -0.0030702 0.6878840 16711746
0.2147924 0.0045970 0.6306403 16711746
-0.7891825 -0.6226468 2.5602536 16711746
0.9911311 -0.3248650 0.9519584 16711746
-0.3238389 -0.0005070 0.6960028 16711746
0.0135397 -0.3721266 1.6477306 16711746
-0.2772501 -0.0014562 0.6454501 16711746
0.0467805 -0.0459937 0.8975042 16711746
0.3646787 0.0277972 0.6301502 16711746
-0.2389133 0.0057774 0.5566535 16711746
0.1053983 0.0267184 0.5558431 16711746
0.0391210 0.0181435 0.5567184 16711746
-0.2934408 -0.0045497 0.6732463 16711746
0.1432750 0.0043692 0.6378914 16711746
0.0394396 0.0243030 0.5208155 16711746
-0.1967282 -0.0012042 0.6612959 16711746
-0.0320800 -0.0155602 0.7033141 16711746
0.2145313 -0.0012711 0.6597286 16711746
0.1430359 -0.0051877 0.7122220 16711746
-0.0614540 -0.0013072 0.6392229 16711746
-0.0732260 0.0052331 0.5922626 16711746
-0.1184444 0.0102501 0.5635887 16711746
-0.0044724 0.0061905 0.6122674 16711746
-0.0374209 0.0113365 0.5453292 16711746
0.1421122 -0.0063563 0.7048019 16711746
-2.1255951 -1.4899522 3.1710582 16711746
0.1637853 0.0064945 0.6269862 16711746
0.0499748 0.0279491 0.4861748 16711746
-0.0232886 0.0006981 0.6351538 16711746
0.0781774 -0.0065991 0.7003237 16711746
-0.1085311 0.0130209 0.4866369 16711746
-0.0064129 -0.0106750 0.6815401 16711746
-0.0414612 0.0304068 0.4701612 16711746
-0.0732881 -0.0046371 0.6074598 16711746
0.0339683 0.0068223 0.6125100 16711746
-0.3577403 -0.0172778 0.7528217 16711746
-0.0702192 0.0081963 0.5576555 16711746
-0.0342373 -0.0158806 0.6967424 16711746
-0.2251578 -0.0261830 0.7855198 16711746
-0.0199411 -0.0520134 0.9600018 16711746
-0.0173919 0.0124140 0.5434556 16711746
0.1799702 0.0057876 0.6438053 16711746
0.2170947 0.0013148 0.6793664 16711746
-0.0380065 -0.0017891 0.6283191 16711746
0.1420301 -0.0092119 0.6955373 16711746
-0.2300060 -0.3017659 0.9249867 16711746
0.1232262 0.0213876 0.5928245 16711746
0.0856191 0.0137432 0.6012532 16711746
0.1761063 0.0032264 0.6285734 16711746
0.2307331 0.0048724 0.6206007 16711746
0.1236442 0.0209890 0.5889164 16711746
-0.0497590 0.0154020 0.4826454 16711746
-2.1660781 -1.1974201 2.9217143 16711746
0.3723840 -0.3258944 0.9618036 16711746
-0.0157221 -0.3603589 1.5958058 16711746
0.3661973 -0.3023286 0.9573269 16711746
0.2308092 -0.2565742 1.3972591 16711746
0.2813815 -0.1617831 0.8838343 16711746
-3.4090333 -1.0311372 3.7194285 16711746
-3.5350206 -0.3669000 3.3679771 16711746
-1.5068625 -1.2023541 4.6807752 16711746
-0.5271056 -0.5876002 3.8036385 16711746
3.1330042 -1.0664847 2.7009013 16711746
-0.8264978 -0.7124401 2.9038949 16711746
0.2985624 -0.1551083 0.9179305 16711746
-1.1247681 -0.1486347 1.7719229 16711746
-0.0169042 -0.0335107 2.3115108 16711746
-0.1047930 -0.0313780 3.3601499 16711746
-6.5388284 -1.1482421 3.8290951 16711746
-2.1635721 -1.5345669 3.5590050 16711746
0.5465245 -0.4032116 1.1518461 16711746
-0.5361215 -0.0999771 1.2886492 16711746
-1.1496235 -1.0931019 3.6743710 16711746
-1.5094306 -0.5711439 4.0293665 16711746
0.4655522 -0.3855650 1.1462840 16711746
0.6048279 -0.4599106 1.2310138 16711746
-3.9039700 -0.2714884 2.7549717 16711746
-0.0431370 -0.3593576 2.1363397 16711746
0.6180179 -0.3443125 1.1187629 16711746
-1.1799905 -0.7648945 4.0170898 16711746
0.7030418 -0.4716017 1.2819482 16711746
-0.1117069 -0.3723218 1.5534784 16711746
0.2924250 -0.1812597 1.0018677 16711746
-0.2113310 0.0044893 0.6245136 16711746
0.1840788 0.0318117 0.5625018 16711746
0.1461190 0.0290648 0.5602303 16711746
0.6368507 -0.1543173 0.7281014 16711746
0.1212417 0.0032630 0.6406478 16711746
0.0367387 0.0182340 0.5431429 16711746
0.2079017 -0.0171482 0.7858702 16711746
-0.0831455 -0.0030957 0.6213312 16711746
0.0139740 -0.0032252 0.6563025 16711746
0.1624602 0.0284337 0.5688410 16711746
0.2242208 0.0174489 0.6189135 16711746
0.1773138 0.0141293 0.6074985 16711746
0.0714590 0.0077478 0.6197024 16711746
0.1923514 0.0246618 0.5986282 16711746
0.1593568 0.0188753 0.6093257 16711746
0.2311972 0.0293416 0.6183322 16711746
0.0177384 0.0112073 0.5974463 16711746
-0.1835036 -0.0205493 0.7666624 16711746
0.2516259 -0.0056198 0.7227061 16711746
-0.2411105 0.0070893 0.5956875 16711746
0.1594995 -0.0021018 0.6599500 16711746
0.0892884 -0.0120938 0.6886263 16711746
0.0729676 -0.0248007 0.7799261 16711746
-0.0634732 -0.0048619 0.6625937 16711746
0.2127528 -0.0036346 0.6996485 16711746
-0.4423500 -0.0277594 0.7275932 16711746
-0.0188137 0.0201310 0.5407952 16711746
-0.0163348 -0.0522355 0.9519276 16711746
-0.2444003 0.0079533 0.5985494 16711746
0.1624236 0.0294031 0.5711864 16711746
0.8568536 -0.2931898 0.9375666 16711746
0.1579040 -0.1015822 1.0900306 16711746
0.2588015 0.0142172 0.6481732 16711746
0.1716677 0.0340189 0.5660267 16711746
0.0524603 0.0186395 0.5915061 16711746
0.0376690 0.0161129 0.5764856 16711746
0.2089336 0.0180056 0.6262726 16711746
-0.2046509 -0.2798050 0.8620681 16711746
0.2280227 -0.1181132 0.5000635 16711746
0.2902269 0.0317820 0.6381449 16711746
-0.0980805 0.0140671 0.5479948 16711746
0.2113173 0.0035063 0.6352693 16711746
0.7127676 -0.1964516 0.7939479 16711746
0.0459558 0.0186353 0.5596563 16711746
0.1217731 -0.0028174 0.6817834 16711746
0.1925870 -0.0735564 1.0278566 16711746
0.1410134 -0.1047401 1.0735395 16711746
0.3172351 -0.0289031 0.8056328 16711746
0.0944919 -0.0206892 0.7683688 16711746
0.2117808 0.0049138 0.6408879 16711746
-0.0394560 -0.0006230 0.6303762 16711746
0.8381785 -0.2253484 0.8968177 16711746
0.1525156 0.0006671 0.6471210 16711746
-0.1306373 -0.2097376 1.3368342 16711746
0.1935967 -0.0160925 0.7657544 16711746
0.2930749 -0.0007595 0.7017202 16711746
0.0203515 0.0172877 0.5487269 16711746
0.1332082 0.0061223 0.6364592 16711746
-0.0370133 0.0208887 0.4936035 16711746
-0.0199973 0.0029910 0.6393264 16711746
0.2824436 0.0010608 0.6753482 16711746
0.2178787 -0.1173635 0.6004803 16711746
0.1073026 -0.0004594 0.6666026 16711746
0.0417247 -0.3161608 1.4285003 16711746
-0.0574367 -0.0350788 0.8410004 16711746
0.2027196 -0.2048049 1.2366582 16711746
0.2344101 -0.1280406 0.6449849 16711746
-0.0343813 0.0146877 0.5053976 16711746
0.1434581 -0.0068295 0.6200876 16711746
-0.5143559 -0.4292164 1.3079134 16711746
-2.0798028 -0.5855824 3.5177100 16711746
-2.0181530 -0.4847450 3.6450942 16711746
0.2397521 -0.0366728 0.8647074 16711746
0.5751424 -0.3669171 1.0446553 16711746
0.2183733 -0.3585931 1.3251883 16711746
0.2405160 -0.0374890 0.8785089 16711746
0.0834500 0.0024388 0.6388631 16711746
-0.1972014 -0.2734252 0.8500027 16711746
-0.1456212 -0.4121146 1.7180910 16711746
-0.6618613 -0.5449565 3.5950654 16711746
-2.6457024 -1.8263324 3.8448136 16711746
-0.9411725 -0.1251061 1.5104959 16711746
0.6679199 -0.4431702 1.1703626 16711746
-3.6648729 -0.7813986 4.1510954 16711746
0.4954674 -0.3740988 0.9839057 16711746
0.7441399 -0.5087043 1.2660832 16711746
-0.9503530 -1.0581548 3.3400850 16711746
0.3252529 -0.2381356 0.9539963 16711746
-0.6919062 -0.5170224 3.4786177 16711746
-0.0534545 -0.3715116 2.3379788 16711746
-4.6585374 -0.2813734 3.1816125 16711746
-2.6858714 -1.4884831 3.7703650 16711746
0.1539721 -0.1089743 1.0888034 16711746
-0.4220029 -0.5330745 3.5098031 16711746
-6.1691494 -0.5479016 3.8977714 16711746
-1.2893527 -0.9492933 4.5033135 16711746
-10.5610075 -1.8265502 6.0328183 16711746
-1.8866585 -0.9583248 5.0515366 16711746
0.2496793 -0.1233469 0.6905372 16711746
-4.3358846 -0.4507368 2.9066570 16711746
-6.3911266 -1.0885651 3.8255024 16711746
-0.1214669 -0.0049918 0.6805035 16711746
0.1757695 0.0005801 0.6421002 16711746
0.1562960 0.0225172 0.5777243 16711746
-0.0358860 -0.0146613 0.6972066 16711746
0.2076094 -0.0166726 0.7891185 16711746
0.1005626 0.0087112 0.6101478 16711746
-0.0091398 -0.0037736 0.6650819 16711746
0.1230023 0.0106812 0.6267470 16711746
0.1349177 0.0083033 0.6300052 16711746
0.0541649 0.0042052 0.6465852 16711746
-0.1256883 -0.0041501 0.6706441 16711746
-0.0981384 -0.0134100 0.6771841 16711746
-0.0048581 -0.0167544 0.7202581 16711746
-0.5970529 -0.0616254 1.0688661 16711746
0.1941360 -0.0253092 0.7797937 16711746
0.1157868 -0.0168905 0.7207355 16711746
0.1893803 -0.0021597 0.7128454 16711746
0.1378497 0.0005347 0.6647025 16711746
0.1381791 -0.0007232 0.6606196 16711746
0.0757109 -0.0642910 0.9958850 16711746
-0.1120999 0.0033986 0.6110737 16711746
-0.1605341 -0.0403945 0.8686953 16711746
-0.0717104 0.0057688 0.5910847 16711746
0.1487501 -0.0066223 0.6826540 16711746
0.0123290 -0.0060118 0.6531124 16711746
0.1255953 0.0241603 0.5676264 16711746
-0.2151201 -0.0213523 0.7858804 16711746
0.0849037 0.0029499 0.6362911 16711746
0.5261275 -0.4217007 1.0287383 16711746
0.0048433 -0.0313835 0.8105346 16711746
0.1563658 0.0269972 0.5884778 16711746
0.0100947 0.0125966 0.5571995 16711746
0.1487831 -0.0056119 0.6851110 16711746
0.0322872 0.0239288 0.5373575 16711746
0.1162419 -0.0155169 0.7208939 16711746
-0.0787187 0.0083962 0.5989701 16711746
0.0687438 0.0158639 0.5804468 16711746
0.0501235 0.0260843 0.5478271 16711746
0.1497564 -0.0073806 0.6785670 16711746
0.0962344 -0.0035969 0.6466421 16711746
0.1836693 0.0076372 0.6424070 16711746
-0.4328431 -0.4514827 1.2154396 16711746
0.0916621 -0.0148636 0.6752020 16711746
-0.1665746 -0.3403952 1.1559827 16711746
0.2649177 0.0158965 0.5966026 16711746
0.2019617 0.0076299 0.5976863 16711746
0.2309584 -0.0006769 0.6496587 16711746
0.3391325 -0.1603356 0.6280625 16711746
-0.1929614 -0.3620983 1.2183228 16711746
0.1316183 0.0080690 0.6420110 16711746
0.4376025 -0.1899882 0.7009618 16711746
0.1665677 0.0102663 0.6186868 16711746
-0.3721679 -0.5537726 1.5921441 16711746
0.4494035 -0.2821130 0.8848833 16711746
0.2063829 -0.1608876 1.0511020 16711746
0.1444326 -0.1202199 1.3430495 16711746
0.0372059 0.0179293 0.5800252 16711746
-0.9216490 -0.4129261 2.8171413 16711746
-1.6673946 -0.4160922 3.0835943 16711746
-0.6453073 -0.2954460 2.3127415 16711746
0.0948901 -0.0146486 0.7387807 16711746
0.1373150 -0.1757442 1.1676550 16711746
0.4195237 -0.3069018 0.8779579 16711746
-0.5962377 -0.5462831 1.3487173 16711746
0.2410495 -0.0372139 0.8801671 16711746
0.2859039 -0.1993539 1.1901140 16711746
0.5197084 -0.3314389 0.9578801 16711746
-3.2319982 -0.5735303 3.1614859 16711746
-0.3613832 -0.0129389 0.7354382 16711746
-0.9843557 -0.0601331 1.1658659 16711746
0.0982682 0.0088904 0.6209287 16711746
0.6193104 -0.4390651 1.0314689 16711746
0.1906269 -0.1802278 1.0907295 16711746
0.4477650 -0.0182712 0.9330565 16711746
0.2663018 -0.0238117 0.8087323 16711746
0.1236389 0.0087339 0.6161914 16711746
0.5505533 -0.3944340 1.0179605 16711746
0.5405511 -0.3884998 0.9755229 16711746
0.4588412 -0.2915072 0.8379128 16711746
0.4587519 -0.3231422 0.9112308 16711746
0.3380933 0.0083937 0.7102692 16711746
-0.3076990 -0.0058713 0.6933612 16711746
0.5000414 -0.3814725 1.0011297 16711746
0.4818471 -0.3407924 0.9451518 16711746
0.0721829 -0.0018876 0.6724708 16711746
0.3240905 -0.2730156 0.8558365 16711746
0.0074986 0.0144463 0.5623071 16711746
-2.6249018 -0.3774540 2.6656163 16711746
-0.0706334 0.0047559 0.5896915 16711746
0.3505744 -0.3040670 1.5005894 16711746
0.6436065 -0.3986976 1.1607840 16711746
-0.8816875 -0.9528570 2.9324324 16711746
-2.7147460 -0.3857802 2.7396655 16711746
0.4758158 -0.3718530 1.1067934 16711746
-0.5558107 -0.4808733 1.2846614 16711746
0.5220281 -0.3249342 0.9912413 16711746
0.1345724 0.0080662 0.6445827 16711746
0.2461382 -0.1159244 0.6580345 16711746
-0.6711336 -0.6120553 2.4480963 16711746
0.5979733 -0.3915006 1.0199088 16711746
0.5691611 -0.4215219 1.1959140 16711746
0.1558828 0.0027931 0.6367514 16711746
0.4989870 -0.4168927 1.1811926 16711746
0.2685658 -0.1405396 0.7434392 16711746
0.4987197 -0.4092704 1.1669179 16711746
-3.0387750 -1.7302189 4.0084038 16711746
0.3972924 -0.3363061 1.0438120 16711746
-1.1510736 -1.1733155 3.6625662 16711746
-2.9705350 -1.5508099 4.0131221 16711746
-2.8693554 -0.8583523 4.3846841 16711746
-0.0022000 -0.2513714 1.1108373 16711746
-0.6395776 -0.0516661 1.0335237 16711746
0.2962838 -0.1667803 0.8545681 16711746
0.2267577 -0.1079975 0.6037882 16711746
0.5137731 -0.3013425 0.9895755 16711746
-1.1244103 -0.9212539 4.0289173 16711746
-4.1152000 -1.9176077 6.2173815 16711746
-12.2709608 -0.6434458 7.5161729 16711746
-13.6843271 -2.3101597 7.6678538 16711746
-1.0287580 -0.7577754 3.6786449 16711746
0.6486102 -0.4259177 1.0823052 16711746
0.4774061 -0.3751711 1.1421503 16711746
0.9013338 -0.6870151 1.8360649 16711746
-0.4543585 -0.4625327 1.2382526 16711746
-0.0805923 -0.0027567 0.6669016 16711746
0.2548152 0.0073957 0.6486109 16711746
0.1656280 -0.0025563 0.6384469 16711746
0.1254012 0.0033155 0.6347215 16711746
0.3342297 -0.0013717 0.6392686 16711746
-0.0315326 0.0068159 0.5878806 16711746
0.0583284 -0.0063673 0.6667933 16711746
0.1534852 -0.0125328 0.7257023 16711746
0.0358632 0.0198595 0.5467625 16711746
0.1575741 0.0090558 0.6283415 16711746
0.2197563 0.0119920 0.5993739 16711746
0.3789155 -0.0183778 0.7038755 16711746
0.0154897 -0.0186495 0.7110769 16711746
0.1479211 -0.0187586 0.7543433 16711746
0.1380364 -0.0162550 0.7354519 16711746
-0.1611161 -0.0720094 1.0446117 16711746
-0.0612227 -0.0293339 0.7809116 16711746
-0.5237282 -0.0646149 1.1224492 16711746
0.1664745 0.0002480 0.6452281 16711746
-0.0768944 -0.0131580 0.6949983 16711746
0.1547796 -0.0119832 0.7259294 16711746
0.1929683 0.0101982 0.5909237 16711746
0.0509890 0.0031470 0.6195142 16711746
0.0834873 -0.0487125 0.9292976 16711746
0.2933773 0.0037983 0.6190578 16711746
0.2935571 0.0002540 0.7004526 16711746
0.0369286 -0.0086211 0.6635272 16711746
0.1657872 -0.0017020 0.6385022 16711746
-0.0456610 -0.0282418 0.8075945 16711746
-0.1923299 -0.0311166 0.8163210 16711746
0.1804519 -0.0124577 0.6959116 16711746
-0.0273145 -0.0504839 0.9765189 16711746
-0.1774557 -0.2199717 0.7868334 16711746
0.0990397 0.0103341 0.6172166 16711746
0.2212580 0.0142878 0.6316755 16711746
0.4334608 -0.2932437 0.9097896 16711746
0.3403777 0.0173737 0.5995350 16711746
0.0465254 -0.0475593 0.8988242 16711746
0.0744351 -0.0644666 1.0016201 16711746
0.3423557 0.0050066 0.6554357 16711746
0.2512914 0.0033603 0.6335989 16711746
-0.2378097 -0.0393835 0.8713236 16711746
0.1089190 -0.0109895 0.6963208 16711746
0.1915576 -0.0332603 0.8552259 16711746
-0.0396667 0.0066320 0.6059908 16711746
0.1671428 0.0113484 0.6208980 16711746
0.1597494 0.0113690 0.6310698 16711746
0.1923435 -0.0321627 0.8659990 16711746
0.0110780 0.0068141 0.6052272 16711746
0.2489453 -0.1483710 0.8043217 16711746
0.1114278 -0.0147030 0.6844555 16711746
0.4075321 -0.2381582 0.8387759 16711746
-0.0334295 0.0194991 0.5366994 16711746
0.2906265 -0.0032851 0.6930165 16711746
-2.2243068 -0.5269015 2.0819376 16711746
-0.8899046 -0.6485804 2.8995020 16711746
0.5501342 -0.3919024 1.1375953 16711746
-3.0698061 -0.4324212 3.6254008 16711746
0.5519038 -0.3955344 1.1661415 16711746
-1.9010113 -0.3150334 2.7132981 16711746
-2.0219781 -0.7704031 4.3959794 16711746
-0.5817816 -0.0316187 0.8913618 16711746
0.4639747 0.0097135 0.6940681 16711746
-1.0063896 -0.1469918 1.6526634 16711746
0.5585485 -0.3514885 1.0125109 16711746
0.6192535 -0.3718413 1.0890568 16711746
-2.7540870 -0.3197196 2.9146621 16711746
0.2819996 -0.3307355 1.5716932 16711746
0.5686482 -0.3687948 1.1272407 16711746
1.5587062 -0.4939803 1.4020261 16711746
0.4527966 -0.2551866 0.9302401 16711746
0.2824548 -0.1433713 0.7790653 16711746
-1.7711142 -0.9172016 4.7740355 16711746
0.5179099 -0.5647721 1.6308219 16711746
-2.6559665 -0.8517657 3.8248658 16711746
-3.3281898 -1.4897805 3.7036834 16711746
0.1930246 -0.1361342 0.8365930 16711746
-1.9763329 -1.1552404 2.8983784 16711746
-2.7281439 -0.8790423 3.9264033 16711746
-2.8480430 -1.2624170 4.2680998 16711746
-1.0089691 -0.5843628 3.9800320 16711746
0.6229929 -0.4557405 1.2671376 16711746
-2.6366510 -0.9649207 4.6584773 16711746
1.1122787 -0.5923331 1.8240111 16711746
-0.0368924 -0.0293917 0.7905505 16711746
0.1627662 -0.0045278 0.6896939 16711746
0.1464959 -0.0035622 0.6305451 16711746
0.5720832 -0.3075714 1.0019964 16711746
0.2008045 -0.1481933 0.9537196 16711746
0.3339510 0.0009953 0.6438789 16711746
0.4826060 -0.3099670 0.9933045 16711746
0.1451157 -0.0028103 0.6296445 16711746
-0.0176173 0.0022276 0.6345862 16711746
0.0201986 -0.0051862 0.6530627 16711746
0.0891826 0.0080651 0.6217679 16711746
-0.1982147 -0.0331559 0.8445827 16711746
-0.0257062 -0.0510241 0.9750357 16711746
0.0399725 -0.0315212 0.8125923 16711746
0.1406332 -0.0009638 0.6591682 16711746
0.2002802 -0.0034069 0.6398253 16711746
-0.0766144 -0.0000070 0.6420043 16711746
0.2331432 0.0004071 0.6214448 16711746
-0.5957225 -0.0714816 1.1324229 16711746
-1.0687735 -0.0598407 1.2375413 16711746
0.1144550 -0.0016397 0.6602951 16711746
0.1438244 -0.1655624 1.0752382 16711746
0.1449267 -0.0035387 0.6327633 16711746
0.0376818 -0.0626284 0.9922447 16711746
0.0345153 -0.0079377 0.6676827 16711746
-0.1207550 -0.3041639 0.8212096 16711746
-0.0018301 -0.0720985 1.0420612 16711746
-0.2862359 -0.0132494 0.7163402 16711746
0.3321406 -0.0018408 0.6373616 16711746
-0.3423762 -0.0951107 1.0551376 16711746
0.0582127 -0.0036061 0.6702562 16711746
0.0920895 0.0030958 0.6255848 16711746
0.1755784 0.0015568 0.6353377 16711746
0.0757337 -0.0653662 0.9936710 16711746
0.1919612 -0.0335315 0.8454701 16711746
0.1648802 -0.0271495 0.7871970 16711746
0.3300639 -0.0161676 0.6756666 16711746
0.0929180 -0.0099809 0.6966078 16711746
-0.1788639 -0.3198532 0.8936086 16711746
0.2459480 0.0023168 0.6078138 16711746
-0.0368302 -0.0141659 0.6995717 16711746
0.3233244 0.0132649 0.5857307 16711746
0.2341391 0.0014924 0.6244389 16711746
0.1479125 -0.0193023 0.7501933 16711746
0.2298855 -0.0216477 0.7720214 16711746
0.1421944 -0.0099108 0.6892449 16711746
0.1822785 0.0049973 0.6322947 16711746
0.0504863 -0.0099140 0.6963906 16711746
0.1219070 -0.0001319 0.6423547 16711746
-0.2925581 -0.3719625 1.0039513 16711746
0.2545807 -0.0116733 0.7339588 16711746
0.0071596 -0.0186629 0.7444609 16711746
0.0732407 -0.0255079 0.7783893 16711746
0.1215051 -0.0145468 0.7422062 16711746
0.2700611 -0.0228457 0.7905211 16711746
-0.0411338 0.0061614 0.6223457 16711746
0.1914974 0.0055202 0.6089861 16711746
0.0664004 -0.0331284 0.9332662 16711746
0.2903793 0.0022260 0.6143753 16711746
-0.0050990 0.0022662 0.6352283 16711746
0.1182995 0.0130659 0.6168963 16711746
-0.4200756 -0.4192765 1.1184703 16711746
-0.0169334 -0.0083688 0.6911706 16711746
0.0126763 -0.0054738 0.6477203 16711746
0.2138246 -0.0053761 0.6504406 16711746
0.1179882 -0.0091997 0.7736587 16711746
-0.5305830 -0.0302491 0.8496176 16711746
-0.3361295 -0.3121579 1.0653571 16711746
-0.0263738 0.0093179 0.5994047 16711746
0.1225000 -0.0058861 0.6649584 16711746
0.3931537 -0.0267028 0.8325911 16711746
-0.0118886 -0.0095984 0.6846356 16711746
-0.0343813 0.0017750 0.7074051 16711746
0.1502017 -0.0073681 0.6778487 16711746
0.1075639 -0.0106810 0.6996697 16711746
-0.6745124 -0.3734396 2.4926684 16711746
0.6930848 -0.4677207 1.3039315 16711746
-2.0766037 -0.6396946 3.8520501 16711746
-0.6967591 -0.3852417 2.5567160 16711746
0.6663402 -0.3540328 1.2624388 16711746
0.2372371 -0.1743515 0.8686157 16711746
-1.3434324 -0.8740093 4.1529760 16711746
-1.9236358 -0.4022286 3.0165045 16711746
-1.3404161 -0.9080894 3.7332399 16711746
-0.5180694 -0.8544432 3.5913329 16711746
2.0402236 -0.6986250 1.6640931 16711746
0.8220646 -0.5025278 1.4607086 16711746
-2.1474116 -0.2093937 1.4364223 16711746
-2.6728587 -0.4927641 1.9000825 16711746
1.3726084 -0.5736347 1.7011671 16711746
-2.9108784 -1.1223329 3.4551449 16711746
-0.8025174 -0.6928729 2.8401933 16711746
0.3381761 -0.2132142 1.0611196 16711746
0.3870423 -0.2928043 1.1483006 16711746
-0.2094397 -0.3571528 1.0655264 16711746
1.0084819 -0.6207652 1.7752984 16711746
-3.2982280 -2.1085553 4.3944497 16711746
-0.0370456 -0.3509174 1.5303651 16711746
-2.7404244 -1.5647497 3.4986095 16711746
0.3556766 -0.3632647 2.6043851 16711746
-4.0849524 -0.3910781 3.7682574 16711746
-0.3052031 -0.4323395 2.8928709 16711746
0.0839790 -0.0077764 0.6860700 16711746
0.0814300 -0.0039007 0.6646672 16711746
0.0375935 -0.0318010 0.8164637 16711746
0.2806421 -0.0160303 0.7524682 16711746
0.1436403 -0.0028934 0.6473777 16711746
0.0720273 0.0026840 0.6469781 16711746
0.2158093 -0.1581083 1.0157242 16711746
0.2477100 -0.0310834 0.8423442 16711746
-0.3363253 -0.4914746 1.3205069 16711746
0.0835077 -0.3110976 1.1426027 16711746
-0.1996198 -0.0239258 0.8038698 16711746
0.2241566 -0.0136797 0.7001482 16711746
0.2923680 -0.1885544 0.7755894 16711746
0.1925674 -0.1029408 0.9461229 16711746
-0.0020930 -0.1106189 1.2896652 16711746
0.1800521 -0.1007165 1.2414142 16711746
0.3129964 -0.0168805 0.7698713 16711746
0.2558414 -0.0302578 0.8002902 16711746
0.2082886 -0.0182461 0.6856515 16711746
-0.5742329 -0.0634373 1.1644622 16711746
-0.5156180 -0.0756236 1.1599168 16711746
0.1104263 -0.0242225 0.7808011 16711746
-0.9370221 -0.5064214 1.4337541 16711746
-0.1451399 -0.0583643 0.9937685 16711746
0.0766354 0.0028872 0.6348405 16711746
-0.5919421 -0.0395286 0.9688056 16711746
-1.7075971 -0.3509960 2.5903640 16711746
-0.1795340 -0.0052664 0.6454231 16711746
0.0575743 -0.0255530 0.7914087 16711746
-0.0036867 -0.0091705 0.6642628 16711746
-0.0336573 -0.0022790 0.6436821 16711746
0.2320110 -0.0002335 0.6528972 16711746
-0.2959390 -0.4421701 1.2324988 16711746
-0.0412387 -0.0738169 1.0578992 16711746
-0.0432037 -0.0262727 0.8040723 16711746
-0.1251119 -0.0880620 1.0986321 16711746
0.0235343 -0.0095263 0.6772128 16711746
0.1166560 -0.0123788 0.7100663 16711746
0.0024480 0.0039230 0.6338059 16711746
0.1907110 -0.0216546 0.7756011 16711746
0.1430783 -0.0362050 0.8526492 16711746
0.0833969 -0.0054444 0.6910048 16711746
0.2349819 -0.0064026 0.6873951 16711746
0.1321597 -0.0179451 0.7527785 16711746
-0.2638910 -0.4630413 1.2080173 16711746
0.1842964 0.0013702 0.6358479 16711746
-0.1416026 -0.2863537 0.8815392 16711746
0.1429075 -0.0360575 0.8552525 16711746
0.2283796 -0.0047298 0.6391910 16711746
0.2150683 -0.0106922 0.7374123 16711746
0.2364987 -0.0048975 0.6952745 16711746
-0.2469042 -0.3958584 1.0964788 16711746
-0.2728070 -0.3874078 1.0510708 16711746
-0.1830482 -0.0374235 0.8777699 16711746
0.1110661 0.0021279 0.6652346 16711746
0.0848671 -0.0097366 0.6810400 16711746
-0.2271913 -0.0251565 0.7953082 16711746
0.1711874 -0.0081433 0.7138697 16711746
-0.1840010 -0.2775253 0.8844153 16711746
0.1747085 -0.0011490 0.6375374 16711746
0.1363087 0.0095223 0.6419834 16711746
-0.3304664 -0.3309505 1.0175098 16711746
0.1836877 -0.0028587 0.7246574 16711746
0.2042313 -0.0124852 0.8310900 16711746
0.0628154 0.0072567 0.6131845 16711746
0.1379800 -0.0155451 0.7379522 16711746
-0.2177653 -0.3719239 1.0969039 16711746
0.0937122 -0.0022924 0.6514980 16711746
0.3310985 -0.0082380 0.7222217 16711746
0.1672685 -0.0074716 0.6936135 16711746
-0.4605408 -0.3391671 1.1601167 16711746
-0.5224172 -0.0707403 1.1050637 16711746
-1.9494809 -1.2508829 2.7776947 16711746
-0.1160170 -0.3750666 2.5246220 16711746
-1.9805442 -0.8015161 2.5763576 16711746
-3.8635688 -0.4421022 2.7303376 16711746
0.6891798 -0.4641084 1.4830090 16711746
-0.3952886 -0.4609680 3.2081718 16711746
2.1943524 -0.7467631 1.9870884 16711746
0.3636343 -0.3401117 1.0782630 16711746
-0.6125207 -0.6107965 2.4919574 16711746
1.6034049 -0.6869972 2.0675366 16711746
-0.6416185 -0.5501738 2.5536265 16711746
-0.3176213 -0.2281968 1.9327942 16711746
-0.8753870 -0.5688511 3.5295019 16711746
-2.3360116 -1.0454613 3.2707672 16711746
0.3728875 -0.3277590 1.6243874 16711746
0.6365753 -0.4314890 1.1985396 16711746
0.4542118 0.0075299 0.6798286 16711746
0.6333500 -0.4148135 1.2542288 16711746
-4.2637873 -0.3044399 3.0870135 16711746
-2.9715891 -0.9970821 3.6180406 16711746
-2.6154680 -1.3870641 3.4191189 16711746
-2.7243145 -1.6863579 3.6053412 16711746
0.1092641 -0.0186685 0.7405075 16711746
0.2447824 -0.0334317 0.8260347 16711746
0.3566677 -0.0296161 0.8392177 16711746
0.1480118 -0.0054148 0.6841801 16711746
0.0732059 -0.0252309 0.7800374 16711746
0.0909108 -0.0105778 0.7227625 16711746
0.3197205 -0.0151552 0.7652408 16711746
0.1466581 -0.0181803 0.7559232 16711746
0.0328091 -0.0298098 0.8285493 16711746
-0.0973273 -0.0135795 0.6822117 16711746
-0.1804743 -0.0194085 0.7467065 16711746
-0.0146787 -0.0537514 0.9476011 16711746
0.2179025 -0.0185705 0.7574461 16711746
0.1088758 -0.0185847 0.7406517 16711746
0.1939901 -0.0010104 0.6457831 16711746
0.2864491 -0.0237413 0.8144036 16711746
0.2599310 -0.0266072 0.8135014 16711746
-0.0696155 -0.0455815 0.8774126 16711746
0.1938821 -0.0012009 0.6447879 16711746
-0.4573056 -0.4346792 1.1729875 16711746
0.3530456 -0.0313280 0.8314767 16711746
0.2289150 -0.0031039 0.6414683 16711746
0.3933080 -0.0004896 0.7409273 16711746
0.1908381 -0.0144949 0.7620046 16711746
0.2191487 -0.0269722 0.8683376 16711746
0.3579024 -0.0291761 0.8410146 16711746
-0.0618505 -0.0053054 0.6617206 16711746
-0.0060541 -0.0073088 0.6691239 16711746
-0.2242339 -0.0344359 0.7895727 16711746
0.0457547 -0.0183554 0.7164891 16711746
0.0011920 -0.0723299 1.0332521 16711746
0.2001244 -0.0360815 0.8693774 16711746
0.3534594 -0.0200480 0.7852115 16711746
0.5395095 -0.3339793 1.0136517 16711746
-0.4424662 -0.5461521 1.4951820 16711746
0.1348967 -0.0135115 0.7143256 16711746
0.0700469 -0.0075434 0.6597096 16711746
0.0840475 -0.0019492 0.6491743 16711746
0.0907140 -0.0081628 0.7045139 16711746
-0.1029855 -0.0244281 0.7542497 16711746
0.0921171 -0.0117113 0.7185048 16711746
-0.0771235 -0.0076980 0.6218550 16711746
-0.0092450 0.0038412 0.6248045 16711746
-0.0073944 -0.0025630 0.6216953 16711746
0.0995720 -0.2307048 1.0754994 16711746
0.2287020 -0.0081166 0.7183434 16711746
-0.0107193 -0.0023392 0.6469740 16711746
0.1911058 -0.1618192 0.8446386 16711746
0.0833445 0.0073847 0.6861395 16711746
0.1042029 -0.0184163 0.7663715 16711746
0.2582813 -0.2145847 1.4410850 16711746
0.5485451 -0.3887096 1.1609235 16711746
0.5133873 -0.2967582 0.9837509 16711746
0.1934698 -0.2233405 1.1449993 16711746
0.2288794 -0.2507333 1.2956092 16711746
0.2811775 -0.0349167 0.8559870 16711746
0.3830435 -0.2738114 0.9838257 16711746
-0.2423872 -0.3632359 1.0113629 16711746
0.5121152 -0.3375688 0.9848938 16711746
-0.0016227 -0.0698375 1.0457057 16711746
0.1538552 -0.1390551 1.1521138 16711746
0.2308140 -0.0200088 0.7769433 16711746
-1.0186448 -0.1658551 1.7475767 16711746
0.5502639 -0.3323878 0.9881120 16711746
0.0517446 -0.0829356 1.1227521 16711746
0.1927610 -0.2125055 1.2788876 16711746
0.1407844 -0.0026111 0.6546626 16711746
0.1082716 -0.0655576 1.0895483 16711746
0.0342560 -0.3235450 1.4637594 16711746
0.1950489 -0.0306312 0.8722891 16711746
0.0530180 0.0101875 0.6152798 16711746
0.0614399 -0.0089658 0.6789333 16711746
-1.6904298 -0.4235297 1.7521125 16711746
0.1434682 -0.1082715 1.0807933 16711746
-0.5391499 -0.0903206 1.2593009 16711746
0.1231261 -0.0091501 0.6823953 16711746
0.2250031 -0.2098171 1.2595006 16711746
-3.6014199 -0.5024213 3.3140380 16711746
0.0135641 0.0122376 0.6009824 16711746
-4.0787425 -0.3411305 2.7060366 16711746
-0.4413551 -0.0476643 0.8622789 16711746
-4.1020503 -0.6273876 2.6592114 16711746
-0.0536650 -0.3212886 2.3486867 16711746
-0.1560048 -0.0248502 3.4711168 16711746
-3.3068688 -0.8282341 4.3650565 16711746
-5.5067911 -0.9853451 3.3530040 16711746
-3.8990285 -0.6496211 2.3191800 16711746
-2.8456557 -1.0006539 4.7361898 16711746
-5.7979479 -0.4380317 3.5667095 16711746
-0.0722258 -0.0389884 3.0115068 16711746
-4.0423255 -2.0940597 4.8795786 16711746
2.7694933 -1.0041702 2.6911004 16711746
0.2964377 -0.1493615 0.8415446 16711746
-4.9966068 -0.2398581 3.1603808 16711746
-4.8957577 -0.5217044 3.2963042 16711746
-5.0657930 -0.2911393 3.2045603 16711746
0.9781751 -0.3439663 1.1479619 16711746
0.0984536 -0.0231551 0.7571042 16711746
0.2053597 -0.0176460 0.7764406 16711746
0.0955295 -0.0163506 0.7372927 16711746
0.0806571 -0.0241387 0.7674553 16711746
0.2195222 -0.0179063 0.7627156 16711746
-0.1052796 -0.0241644 0.7554943 16711746
0.0837370 0.0000006 0.6532035 16711746
0.0893914 -0.0092849 0.6815065 16711746
-0.0688111 -0.0459001 0.8769289 16711746
0.0750208 -0.0262943 0.7764308 16711746
0.2729763 -0.0152570 0.7667230 16711746
0.2101797 -0.0442052 0.8944382 16711746
-0.0687271 -0.0155330 0.6891289 16711746
-0.1640327 -0.3096203 1.0244570 16711746
-0.3001246 -0.1259484 1.3468996 16711746
0.2264745 -0.0866160 1.0744077 16711746
0.1648083 -0.0252163 0.7990075 16711746
0.2223193 -0.0528349 0.9457844 16711746
-0.4688167 -0.1640884 1.5455425 16711746
0.2258100 -0.0863163 1.0528659 16711746
-0.5410771 -0.0652677 1.0325049 16711746
0.2936769 0.0042266 0.7025354 16711746
-0.2528392 -0.0383042 0.8321866 16711746
-0.5854478 -0.0546310 1.0224756 16711746
0.1969626 -0.2647828 1.3619705 16711746
0.0476187 -0.0491716 0.9028447 16711746
0.1921931 -0.2568473 1.3228112 16711746
0.2665530 0.0017240 0.6916396 16711746
0.3241023 -0.0374582 0.8768868 16711746
0.1085738 -0.0183018 0.7420160 16711746
0.1555021 -0.0210943 0.7732691 16711746
-0.0332881 -0.0095373 0.6839308 16711746
-0.0344563 -0.0271209 0.7513857 16711746
0.0586985 0.0064131 0.6309105 16711746
0.0410188 -0.0057294 0.6705711 16711746
0.2167263 -0.0551044 0.9559022 16711746
0.4275043 -0.0162583 0.8019531 16711746
-0.0205185 -0.0400319 0.8465852 16711746
0.1639682 -0.0273859 0.8109840 16711746
0.1534355 -0.0311819 0.8319288 16711746
0.0224288 -0.0580231 0.9593028 16711746
0.1116209 -0.0074307 0.6915326 16711746
0.0007989 -0.0430380 0.8895202 16711746
0.0574982 -0.0421021 0.8696437 16711746
-0.2756576 -0.4174524 1.1423168 16711746
-0.3693595 -0.4837318 1.2768724 16711746
0.0826379 -0.0147854 0.7134838 16711746
0.1220412 -0.0077145 0.6864676 16711746
-1.2130930 -0.4634312 3.2187958 16711746
0.3010648 -0.0397967 0.8882686 16711746
-0.1146055 -0.0601504 0.9783330 16711746
0.3540966 -0.0199229 0.7855696 16711746
0.0042995 -0.0438862 0.8815312 16711746
0.0529425 -0.0014453 0.6641944 16711746
-0.2541550 -0.0330093 0.7790459 16711746
0.0970903 -0.0118978 0.7159011 16711746
0.1125522 -0.0056542 0.7298944 16711746
-0.0684022 -0.0036902 0.6680492 16711746
0.2449108 -0.0329204 0.8280318 16711746
0.0910462 -0.0534796 0.9026136 16711746
0.0950987 -0.0150508 0.7402798 16711746
0.2007399 -0.0018623 0.7450314 16711746
-0.0006722 -0.0181958 0.7166286 16711746
-0.2281093 -0.0253874 0.7943836 16711746
0.1125929 -0.0225122 0.7314508 16711746
-0.0034818 -0.0174014 0.7188578 16711746
0.2038996 -0.0057447 0.7239615 16711746
0.3601260 -0.0167247 0.7976630 16711746
-0.0122318 -0.0056657 0.6568196 16711746
-0.0023885 -0.0179146 0.7158299 16711746
0.2664423 -0.0168358 0.7908583 16711746
-0.2383247 -0.0241260 0.8019280 16711746
0.4299974 -0.0758984 1.1174468 16711746
-1.7356318 -0.6624664 3.4043708 16711746
-0.2233098 -0.0462687 0.9113594 16711746
0.1018101 0.0021274 0.6482328 16711746
0.2381195 -0.0401910 0.8702518 16711746
0.3796494 -0.3097412 1.0059230 16711746
0.5150984 -0.3494674 1.0655553 16711746
0.5332772 -0.3005965 1.0515329 16711746
0.4805791 -0.3142677 1.0197419 16711746
0.2709153 -0.0228100 0.7941962 16711746
0.2264199 -0.3745515 1.4935986 16711746
-2.5308025 -0.6215355 2.5830820 16711746
-0.2705334 -0.1394742 1.4597965 16711746
0.0496069 -0.2845461 1.7745608 16711746
0.2788629 -0.1507414 0.8505463 16711746
-4.9952350 -0.7763455 3.3437345 16711746
-2.6396019 -0.7040142 2.8920491 16711746
-3.6152325 -0.8325984 3.4312062 16711746
-4.5746269 -0.4665566 3.0301700 16711746
-0.2828329 -0.6847439 3.4322691 16711746
0.0565878 -0.0230361 0.7600625 16711746
0.5846847 -0.3893069 1.0875467 16711746
0.5237533 -0.3028030 0.9987452 16711746
-4.3395519 -0.6920752 2.9624667 16711746
0.3754383 -0.2369387 1.4220873 16711746
0.5981516 -0.4100519 1.2327331 16711746
1.4440759 -0.6464215 2.0231972 16711746
-0.6053660 -0.1787073 1.7544384 16711746
-0.5803408 -0.4381897 3.1483619 16711746
0.3700275 -0.2164129 0.8705906 16711746
-0.2627181 -0.3290996 1.0051183 16711746
0.5772775 -0.4045002 1.2230898 16711746
-1.3108932 -0.4935913 3.4164202 16711746
0.3059971 -0.3525614 1.6799645 16711746
0.3745157 -0.2092224 1.2503589 16711746
1.3834459 -0.9111765 2.2604914 16711746
0.2832845 -0.2572760 1.4318258 16711746
-1.8044521 -0.6096196 4.1844978 16711746
0.2259239 -0.1939458 1.1818234 16711746
-1.2414603 -0.3338762 2.4378135 16711746
-2.9217768 -0.2881292 2.7274284 16711746
0.3944728 -0.2861285 1.1072392 16711746
-1.0436217 -0.7367153 3.8756394 16711746
0.5122017 -0.3148242 0.9686901 16711746
0.3539182 -0.2034398 1.1259605 16711746
-0.1339519 -0.2286136 0.9259548 16711746
-8.2031431 -1.1788006 4.6730995 16711746
-4.1538267 -0.6296895 2.4671049 16711746
0.2559156 -0.0310619 0.7993909 16711746
0.1626333 -0.0503633 0.9157130 16711746
0.2286952 -0.0137664 0.7465137 16711746
0.2582677 -0.0056812 0.7282622 16711746
0.1758411 -0.0078644 0.7151742 16711746
0.2998368 -0.0154805 0.7471869 16711746
0.2561045 -0.0308984 0.8010704 16711746
0.5596762 -0.3091605 0.9977830 16711746
0.2993728 -0.0286066 0.8627715 16711746
-0.0130889 -0.0305601 0.7721307 16711746
-0.0130332 -0.0261801 0.7560939 16711746
0.2163783 -0.0109558 0.7352350 16711746
0.2712929 -0.0233579 0.7936777 16711746
0.2066322 -0.0200363 0.7650198 16711746
-0.2475197 -0.3678753 1.0185056 16711746
0.1342263 -0.0107283 0.7060006 16711746
0.0232908 -0.0571691 0.9595123 16711746
0.5489904 -0.3009845 0.9784243 16711746
0.3708933 -0.0018903 0.7570722 16711746
0.0771261 -0.0665993 0.9893147 16711746
-0.1160341 -0.3124357 0.9651721 16711746
0.5479862 -0.3551112 1.0553237 16711746
0.5239833 -0.2872446 0.9481927 16711746
0.0908982 -0.0538808 0.9556748 16711746
0.5683063 -0.3459612 1.0572371 16711746
0.0883840 -0.0131328 0.6941460 16711746
-0.3238557 -0.4282102 1.3678747 16711746
-0.2348409 -0.1310113 1.3885974 16711746
0.3207083 -0.0314222 0.8494883 16711746
-0.0257150 -0.0387591 0.8537284 16711746
0.3709698 -0.0194414 0.8294209 16711746
-0.1930562 -0.0296276 0.8205225 16711746
0.5968419 -0.3269746 1.0391649 16711746
0.2537393 -0.0198376 0.7648342 16711746
0.5316290 -0.2869119 0.9509940 16711746
0.2161511 -0.0378889 0.9652216 16711746
0.0578700 -0.0090339 0.6904798 16711746
0.0905067 -0.0283967 0.7725227 16711746
0.0311020 -0.0055222 0.6840476 16711746
0.3171202 -0.1971897 0.8217570 16711746
0.0935047 -0.0306717 0.7633269 16711746
0.0329913 -0.0290182 0.7515317 16711746
0.2390013 -0.0386373 0.8688772 16711746
0.0087298 -0.0112761 0.6987462 16711746
0.2169002 -0.0290759 0.8528834 16711746
0.0209328 -0.0247298 0.7649705 16711746
-0.1348053 -0.1312778 1.4458261 16711746
0.2176894 -0.0457471 0.9031512 16711746
0.5158452 -0.3393586 1.0613583 16711746
-0.3058467 -0.4271254 1.2174246 16711746
0.5211688 -0.3284768 1.0924755 16711746
0.3907196 -0.2606390 1.0153388 16711746
0.3177340 -0.2280515 1.3643082 16711746
0.7866059 -0.4004519 1.3827834 16711746
-4.3709793 -0.3135113 2.7235200 16711746
-0.2880889 -0.1207368 1.3995174 16711746
0.1908398 -0.0481537 0.8841885 16711746
0.2542516 -0.0493233 0.9188917 16711746
0.2066233 -0.0188846 0.7681886 16711746
-0.2079039 -0.3345260 1.0816623 16711746
0.1407490 -0.0068490 0.6963679 16711746
0.5344398 -0.3528065 1.1164567 16711746
0.5300001 -0.3105912 1.0233015 16711746
-0.2205545 -0.0469010 0.9107073 16711746
0.1146736 -0.0694962 1.0129189 16711746
0.5241948 -0.3451307 1.0983887 16711746
-0.2209058 -0.3416627 1.0996988 16711746
-2.4275606 -0.4869038 1.7895495 16711746
0.3000148 -0.0256981 0.7955584 16711746
0.1425743 -0.0367433 0.8528472 16711746
0.1582247 -0.1176752 1.0950089 16711746
0.5868051 -0.3549475 1.0912805 16711746
0.3021165 -0.1788918 1.4893458 16711746
0.3069021 -0.3367888 1.6461608 16711746
0.2688061 -0.1864024 1.4761211 16711746
0.5413678 -0.3368596 1.0556018 16711746
-3.1374447 -0.7844254 4.1603127 16711746
-0.4423112 -0.1159474 1.3683869 16711746
0.3315951 -0.1842032 1.0673956 16711746
-2.4397042 -0.8207612 4.2154598 16711746
-1.8923203 -0.3894079 3.0796382 16711746
-1.0808702 -0.9122211 3.7454557 16711746
0.7417283 -0.1167621 1.6227715 16711746
0.3508768 -0.2021002 1.1175528 16711746
-1.1438316 -1.1437531 4.4092808 16711746
0.2454014 -0.0341873 0.8252031 16711746
0.0846152 -0.0165144 0.7159405 16711746
0.1687951 -0.0241645 0.7766125 16711746
0.2579410 -0.0170731 0.7467906 16711746
0.1465756 -0.0163740 0.7459189 16711746
0.1229530 -0.0733362 1.0137665 16711746
0.3343925 -0.0196915 0.7806285 16711746
0.1858992 -0.1214237 1.0722878 16711746
0.1615151 -0.0502094 0.9183588 16711746
0.0973593 -0.0099911 0.6919944 16711746
0.3657404 -0.0391382 0.8507039 16711746
0.2448781 -0.0339082 0.8250349 16711746
0.1471706 -0.0192880 0.7530245 16711746
-0.0545009 -0.0606842 0.9686217 16711746
0.3667046 -0.0388662 0.8530331 16711746
0.2224938 -0.0252928 0.7757370 16711746
0.0997522 -0.0118861 0.6880984 16711746
0.0187363 -0.0773257 1.0843130 16711746
0.0846904 -0.0498441 0.9255342 16711746
0.3753709 -0.0362146 0.8792024 16711746
0.2002294 -0.0378836 0.8629280 16711746
0.1006915 -0.0398407 0.8790727 16711746
0.2825909 -0.0144403 0.7536928 16711746
0.3433506 -0.0346921 0.8473390 16711746
0.1357516 -0.0277620 0.7826868 16711746
-0.2352709 -0.3585748 1.0148401 16711746
0.2754787 -0.0259358 0.7730560 16711746
-0.5073900 -0.0565517 1.0384225 16711746
0.2002653 -0.0281705 0.7877064 16711746
-0.5548669 -0.4376549 1.2412757 16711746
0.2586947 -0.0309325 0.8331559 16711746
0.2452247 -0.0341322 0.8256416 16711746
0.0213871 -0.0586588 0.9598331 16711746
0.1992800 -0.0364797 0.8653179 16711746
-0.0548798 -0.3167733 1.1786704 16711746
0.0067996 -0.0318600 0.8072128 16711746
0.0804550 -0.0477993 0.8917990 16711746
0.0882671 -0.0537897 0.9290025 16711746
0.3042376 -0.1587763 0.7380549 16711746
-0.0568744 -0.2943761 1.1838495 16711746
0.1004596 -0.0204037 0.7569876 16711746
0.1780306 -0.1076090 0.9303964 16711746
0.2599788 -0.0292243 0.8421102 16711746
0.3155309 -0.1959272 0.8578840 16711746
0.6765320 -0.3955582 1.2204880 16711746
0.5137722 -0.3120852 1.1917717 16711746
0.3823048 -0.2511543 0.9917730 16711746
0.2572439 -0.0288057 0.8071992 16711746
-1.2813115 -0.5977283 3.4394178 16711746
0.2719111 -0.2276005 1.2742656 16711746
0.8521802 -0.4129831 1.4756109 16711746
0.2699625 -0.0190118 0.7703180 16711746
0.0081374 -0.1239930 1.3287305 16711746
0.5612109 -0.3413295 1.0795246 16711746
0.3602656 -0.0570526 1.0374928 16711746
0.3663396 -0.0206586 0.8185620 16711746
0.3675949 -0.0391220 0.8641493 16711746
0.2863047 -0.0411490 0.8883967 16711746
0.3597258 -0.0573696 1.0368626 16711746
0.2401564 -0.0286189 0.8063793 16711746
0.2535939 -0.0492721 0.9203135 16711746
0.2992188 -0.0412220 0.8828638 16711746
0.3102063 -0.0631345 1.0475225 16711746
0.1879545 -0.0096934 0.7254719 16711746
-0.4164430 -0.1230140 1.4094905 16711746
-0.5061363 -0.0558670 1.0385120 16711746
0.5125796 -0.3102138 0.9850373 16711746
0.2842128 -0.2458539 1.3843728 16711746
-0.1629741 -0.0250820 0.7466859 16711746
-0.0431299 -0.2066635 0.8656217 16711746
0.2004178 -0.0825957 1.0327040 16711746
0.1382468 -0.1106506 1.0943428 16711746
-0.3074057 -0.3204104 1.0841360 16711746
0.3955417 -0.2979645 1.0110843 16711746
0.4032517 -0.2759246 1.0002419 16711746
-0.1724042 -0.2559359 0.9445612 16711746
0.0922749 -0.1904041 1.1794053 16711746
