# .PCD v.7 - Point Cloud Data file format
VERSION .7
FIELDS x y z rgb
SIZE 4 4 4 4
TYPE F F F F
COUNT 1 1 1 1
WIDTH 1145
HEIGHT 1
VIEWPOINT 0 0 0 1 0 0 0
POINTS 1145
DATA ascii
-1.6517996 -7.8532534 11.2042933 16711746
-2.5082664 -8.2053108 11.4010954 16711746
6.0773211 -7.7050247 11.9309092 16711746
-1.4425412 -2.4302347 10.6958065 16711746
-1.9660578 -7.4210515 10.8616590 16711746
-0.4653018 -9.3312798 12.1567450 16711746
0.5775965 -9.8907118 11.8515959 16711746
0.2907371 -8.7740440 11.7400827 16711746
-1.7962005 -6.6077127 10.4796667 16711746
-2.1101840 -3.3557062 10.6171255 16711746
3.1342168 -11.3059340 11.6378460 16711746
0.5094466 -10.0240192 12.1397972 16711746
5.2300305 -7.1583071 12.8215733 16711746
-2.5853536 -6.9423804 10.8946028 16711746
2.6792750 -10.8115845 11.9111776 16711746
2.3668871 -10.7794533 11.9349728 16711746
2.2183466 -9.6991787 11.5623808 16711746
-0.9758895 -1.8496951 10.7712803 16711746
-1.6305509 -9.2730131 12.7149076 16711746
0.8909473 -10.2639236 14.1401653 16711746
0.0350914 -10.2642365 12.2539597 16711746
-1.2033613 -8.3552647 10.6954479 16711746
4.5838337 -7.4955587 10.4543505 16711746
-1.4471617 -7.0767131 10.5260458 16711746
3.9414477 -9.3814068 10.3389645 16711746
-1.1216969 -9.5536261 11.7656126 16711746
-0.3366063 -10.7937012 12.7683296 16711746
-0.8708553 -10.4300451 12.6979828 16711746
3.0928130 -9.7389641 12.4918880 16711746
3.7348974 -10.3397207 12.1178236 16711746
2.2929337 -9.8812819 12.4273415 16711746
-1.8098354 -6.4102721 10.6056681 16711746
-1.9503933 -7.1226254 10.7418547 16711746
4.6364799 -10.2201948 12.0270796 16711746
0.0411057 -10.9964561 12.8048563 16711746
7.2687268 -10.3473949 10.4431019 16711746
1.5761300 -8.5699387 11.1888618 16711746
-1.3315135 -9.1700258 11.8494282 16711746
-0.0865548 -8.5265503 10.9660854 16711746
3.4032454 -11.6315203 12.9387732 16711746
2.2938583 -9.1928177 10.6760569 16711746
2.9277589 -10.6231070 10.6011629 16711746
5.5262661 -8.4649839 12.2533283 16711746
7.0685573 -10.5029030 12.6437378 16711746
4.8503699 -9.2415991 12.4065037 16711746
-0.1911011 -7.8837810 11.2336025 16711746
-0.1763975 -9.2554903 11.3472214 16711746
6.7513027 -7.7339821 14.4250412 16711746
3.0860920 -10.9232512 11.8299494 16711746
-0.4937031 -10.0969906 11.7832794 16711746
2.1497788 -9.2360878 10.5362148 16711746
5.1570330 -7.7836547 11.1474524 16711746
5.1363192 -10.6333418 11.7083483 16711746
5.9374895 -9.7199430 11.6715040 16711746
-0.1182943 -10.3011417 13.0544405 16711746
1.8439335 -10.4945459 12.0715818 16711746
6.7218003 -8.1780558 13.2072115 16711746
6.4855995 -9.2648754 13.2956810 16711746
5.7421913 -10.0483484 13.7676592 16711746
6.0168014 -8.6225672 11.7765694 16711746
5.3343296 -9.6028547 12.0399389 16711746
-1.9001862 -3.5760360 10.4589882 16711746
-2.0869420 -3.7683272 10.4160576 16711746
-1.9253821 -3.4730840 10.4318275 16711746
-1.6822661 -2.8213906 10.6230068 16711746
-1.4667552 -2.4613349 10.6626740 16711746
-2.0442612 -3.8129723 10.4982462 16711746
-1.9908261 -3.5875812 10.5214567 16711746
-2.5134344 -5.7268686 10.2224703 16711746
-2.5190434 -5.6416154 10.5780916 16711746
-0.1223085 -10.2406921 13.0447283 16711746
6.4800820 -8.2168207 10.4497786 16711746
-2.0330439 -3.6633914 10.5100880 16711746
4.5773058 -9.6264105 12.0466871 16711746
4.6279893 -9.7141390 11.8953819 16711746
3.4723094 -10.8178511 13.3132362 16711746
3.5668073 -11.2056561 13.1817179 16711746
6.3357635 -8.9179277 13.4053669 16711746
4.9875546 -7.8223467 10.6242247 16711746
0.5092916 -8.7447691 16.3532600 16711746
-1.8057723 -8.1674700 10.6953888 16711746
-0.9930573 -9.6401224 11.6104908 16711746
-0.7606816 -7.6762099 10.7522058 16711746
5.0242419 -7.5751028 12.5805626 16711746
5.8447404 -10.6047659 12.6720800 16711746
0.2141377 -9.3756809 13.6724854 16711746
-1.3122969 -7.3942556 10.6466980 16711746
4.0337625 -10.4996576 15.9560127 16711746
3.7430234 -8.2060690 12.9991570 16711746
0.4782127 -7.9850397 13.1802826 16711746
-0.0180246 -8.7443762 11.3339186 16711746
-1.4613017 -9.2292671 11.5431604 16711746
-1.7962193 -9.5553455 12.4995346 16711746
-2.2010236 -6.5463290 10.7396049 16711746
5.5816746 -7.6369462 11.9964247 16711746
5.8817377 -10.5239687 13.4732761 16711746
-2.0185354 -8.3476505 11.5416250 16711746
6.0784593 -7.6052666 11.7518940 16711746
2.5590603 -9.0375853 11.0723486 16711746
-0.3746233 -10.7841234 11.2885561 16711746
2.7027781 -10.0103712 12.0947504 16711746
4.6047177 -8.5738602 10.8282270 16711746
-0.4115282 -2.1855183 11.4031105 16711746
3.5580537 -11.1370296 11.4293432 16711746
2.4470239 -10.0918465 11.3674498 16711746
2.6127331 -10.8517218 11.6470594 16711746
0.6117036 -10.1490641 11.8643208 16711746
3.2603862 -11.4872742 10.5811920 16711746
5.5951028 -8.5445070 11.0840836 16711746
4.6880193 -7.6283202 11.1575556 16711746
6.2272987 -9.7127323 11.0990963 16711746
5.2494550 -10.5623674 11.4195223 16711746
5.0977149 -9.7702084 11.7970591 16711746
6.1566420 -9.9147339 11.4539871 16711746
-0.0467453 -10.0094023 13.2000141 16711746
1.7457751 -10.1304007 12.0231667 16711746
0.5887794 -9.4760294 12.1767883 16711746
-0.8767426 -10.0585518 12.8063679 16711746
6.8361125 -6.8986092 12.9014711 16711746
5.3444638 -10.3679466 13.3819113 16711746
7.1024046 -7.5953288 12.2349262 16711746
5.5408578 -10.6927710 13.2174616 16711746
-1.2697915 -2.1863179 10.7292929 16711746
-1.9474043 -3.5586257 10.4543886 16711746
-1.9283024 -3.2050912 10.6145611 16711746
-1.4810667 -2.4711635 10.6580772 16711746
-1.7297233 -8.9826431 11.4189310 16711746
-1.1201797 -9.5888815 11.4857588 16711746
-1.9676158 -5.4150195 10.4552650 16711746
-1.7857641 -3.9698622 10.6051464 16711746
-2.4559009 -5.2012229 10.4495316 16711746
-2.1786332 -6.2968454 10.7293129 16711746
-0.5447258 -1.6871706 10.9221153 16711746
1.7142811 -8.0832167 13.8042650 16711746
7.9258776 -9.2199955 11.9591398 16711746
5.0779290 -7.3593602 11.8135881 16711746
2.4875612 -11.2552481 10.8398581 16711746
2.3181155 -10.7344332 10.7954588 16711746
-2.5138972 -5.7793317 11.3444567 16711746
-1.2962482 -7.6028347 10.7587729 16711746
0.4207142 -10.1999788 11.7831059 16711746
-0.3558519 -7.8406105 10.9837437 16711746
-1.9775128 -7.1234717 10.6082277 16711746
-2.3528514 -4.8645568 10.7936125 16711746
-2.0561776 -6.9995246 10.4795189 16711746
-1.1140686 -2.0011294 10.7622795 16711746
0.5450245 -10.3888712 12.8671951 16711746
-0.4524783 -9.9340401 11.1411381 16711746
-2.3498158 -5.3327050 11.2455196 16711746
0.1624365 -3.2189105 11.2805471 16711746
7.5659437 -9.5718861 14.7731018 16711746
0.2621232 -4.8459606 13.9343996 16711746
-0.5991851 -1.9400580 11.0433874 16711746
0.2188228 -8.8498192 16.6800442 16711746
1.3009384 -8.9116125 11.3579626 16711746
1.2941711 -5.6733966 10.8655033 16711746
1.9532183 -9.7121372 11.6849346 16711746
-0.1627039 -7.3840504 11.3063040 16711746
3.3304303 -6.1839962 11.3463888 16711746
6.1666431 -9.0580559 10.4768848 16711746
2.9099889 -9.3584795 11.9039240 16711746
1.9379735 -7.5894666 12.2774839 16711746
0.9211448 -11.4077587 12.4763193 16711746
1.1695186 -10.6120024 12.9308834 16711746
6.2389798 -8.1616220 13.1822195 16711746
6.2414670 -8.6254911 13.0753565 16711746
6.7396555 -8.9104815 12.5626688 16711746
5.4045944 -7.0397239 12.0419207 16711746
-1.7038091 -3.0199354 10.5915375 16711746
-2.1049595 -3.7607644 10.4847097 16711746
-1.8227016 -3.0721934 10.6282959 16711746
-1.5998617 -2.8660543 10.6488953 16711746
-2.0345669 -3.6452932 10.5581951 16711746
-1.3064493 -2.2260113 10.7251062 16711746
-1.0917550 -1.9752774 10.7492733 16711746
-1.0533334 -9.2337551 11.1945372 16711746
-1.0592666 -8.7534218 11.5537186 16711746
-1.0984210 -8.7800589 11.4019184 16711746
-1.1388102 -7.1789312 11.2717838 16711746
-2.1142547 -6.7148733 10.6887903 16711746
-1.0435787 -10.3465471 12.3479548 16711746
-2.5019090 -6.4938474 11.4657478 16711746
-2.3660777 -8.1119585 11.5255070 16711746
6.3736911 -10.1421375 11.4899197 16711746
3.3558838 -11.4817486 14.0054350 16711746
-1.4197474 -8.0381145 12.9905519 16711746
-1.2769809 -7.9940367 11.1127081 16711746
6.0078602 -9.8221960 11.8660393 16711746
-0.9769172 -1.8613141 10.7773857 16711746
0.6656055 -10.3522272 12.2139349 16711746
0.7159702 -10.2222128 12.2959366 16711746
-1.4981217 -7.6755676 11.0561543 16711746
-2.0488539 -3.5896711 10.5822563 16711746
-0.1478932 -10.3476496 14.3155251 16711746
-0.6869382 -9.7464418 14.5173998 16711746
7.3850441 -8.1157503 14.8587866 16711746
3.8816073 -11.0952864 11.9821157 16711746
2.8464763 -10.4466839 11.7724714 16711746
-0.0122555 -9.8582296 11.3314314 16711746
-0.7561369 -8.1729956 11.2044277 16711746
2.4980912 -9.5887432 10.8953609 16711746
5.0453291 -7.2680955 10.8468981 16711746
5.8612103 -7.3016448 10.9911547 16711746
4.2811999 -7.3220654 11.4758081 16711746
4.1156082 -8.2449217 11.1115618 16711746
2.5083027 -9.3433027 12.9263821 16711746
2.3737733 -10.5404758 12.2800694 16711746
1.9463737 -7.6074595 12.2911015 16711746
-0.4539352 -9.9223909 12.1060314 16711746
0.6538295 -9.4785480 12.5140867 16711746
6.3811297 -7.1872721 12.5597258 16711746
6.8505440 -7.9084668 12.0483036 16711746
5.5286274 -8.3508005 12.5102034 16711746
5.5019336 -9.2902212 12.3055239 16711746
-1.8495179 -3.0897670 10.6326742 16711746
-2.1803641 -5.5370817 10.7522268 16711746
-1.8189992 -3.8941178 10.6489048 16711746
-1.8656063 -8.6952229 11.9030170 16711746
-0.9989106 -9.2542820 12.1820612 16711746
-0.9296475 -9.7330837 11.9956284 16711746
-2.8390975 -6.4646058 11.4534044 16711746
-2.7218065 -7.4689732 11.7419786 16711746
-2.7637122 -7.1768098 11.5446663 16711746
-2.8335030 -5.7985129 11.4865913 16711746
-2.7017529 -6.8390031 10.7706985 16711746
5.7832508 -8.5357437 13.4933329 16711746
5.4608164 -7.4763012 11.2431870 16711746
-2.4469447 -7.5276294 10.9073153 16711746
5.0942755 -7.8637404 12.3930168 16711746
3.0157468 -9.2090397 14.3281250 16711746
2.9950104 -9.2073612 14.1229897 16711746
-2.9593916 -5.9894667 11.8721943 16711746
-2.3601599 -6.3610544 11.2911825 16711746
-0.5472819 -8.5117931 11.7851944 16711746
-0.6934718 -6.1686087 11.3238420 16711746
-1.7534810 -6.8027158 11.5812225 16711746
4.8255520 -10.3833380 13.7179899 16711746
1.6234251 -6.2120061 12.1071386 16711746
7.4245763 -8.5206327 13.2356215 16711746
-1.6380047 -7.6083317 11.4449329 16711746
-2.7194974 -5.1982069 10.8723516 16711746
5.4822087 -7.6291103 11.1554718 16711746
3.0618467 -11.6771641 13.0360813 16711746
6.7181435 -8.4204664 13.4772520 16711746
3.2837155 -11.3050814 13.5070200 16711746
-1.2011421 -6.0536623 11.4679737 16711746
-2.3750284 -7.7680583 12.6683474 16711746
-0.9305477 -7.0187044 10.9245958 16711746
-1.4823087 -8.8346691 10.9198513 16711746
6.5188990 -8.9308023 13.9491625 16711746
-1.0551642 -10.1285028 12.8439894 16711746
-2.6187315 -8.3261805 12.4297972 16711746
-0.7390832 -8.7251167 11.5589466 16711746
-0.7185108 -9.6405268 14.8394527 16711746
-1.4930969 -6.2677641 10.7698212 16711746
-2.2551441 -6.9830322 11.1669950 16711746
-1.6410769 -7.4898782 11.6526489 16711746
0.8698144 -7.9410315 15.8049793 16711746
5.9955497 -8.3220081 14.5018320 16711746
-0.7691198 -9.0947380 12.1630688 16711746
-0.5818493 -9.2827978 12.1473799 16711746
-0.9404527 -7.9952593 12.3521795 16711746
-2.1773016 -4.4226546 10.8351994 16711746
-2.1474257 -7.9491973 11.7540197 16711746
5.7525387 -8.0872908 12.0514154 16711746
-0.9487810 -7.4025264 12.6083794 16711746
3.8775866 -10.1993484 12.0530357 16711746
-1.9847311 -4.3132339 11.3194466 16711746
7.0451884 -9.1106739 11.0264158 16711746
-1.1164253 -8.9377108 12.0469198 16711746
-1.1963557 -8.5698147 12.6800909 16711746
-1.4587156 -9.7833023 14.7937002 16711746
-2.6487870 -7.4476628 11.0643797 16711746
-2.5361929 -7.6173387 10.9938679 16711746
-2.8976922 -6.6381540 11.2154551 16711746
5.0482030 -7.1578279 13.0281181 16711746
5.3732157 -9.3281212 12.0782833 16711746
-1.2941264 -6.9688315 11.0102015 16711746
-2.5575554 -7.4375854 12.2415991 16711746
3.4868255 -6.4010439 14.6249018 16711746
-1.9472985 -3.2970610 10.8158894 16711746
-2.6361756 -4.3878107 11.1769190 16711746
-2.5995882 -7.6596656 11.4225779 16711746
-1.7615377 -8.5892916 11.7858801 16711746
-1.6292557 -9.0147333 11.6806402 16711746
-2.6322970 -4.0689435 11.2276754 16711746
-0.9486237 -8.8046875 12.2164097 16711746
0.1177550 -8.4775143 13.6982069 16711746
-1.7003466 -4.3376989 10.8096962 16711746
-1.6883731 -8.7853842 12.7418795 16711746
-2.6461103 -5.1425047 11.2140675 16711746
1.1627978 -7.8070149 11.0170660 16711746
4.3786740 -5.6584139 13.3260527 16711746
6.3371930 -13.3013535 19.8691235 16711746
5.5225320 -13.0319834 21.5092602 16711746
1.9942111 -3.9867578 10.6918068 16711746
6.8701782 -13.7699966 23.1089993 16711746
4.7553263 -12.5955801 18.0823116 16711746
9.8980532 -12.8166246 15.6108904 16711746
4.8190846 -8.9395399 16.1242275 16711746
9.1904287 -15.2335005 13.8379345 16711746
4.6871672 -13.6828651 17.8214436 16711746
6.6390615 -12.7388592 24.2615280 16711746
4.2576833 -9.3640461 17.7581272 16711746
5.0855837 -11.7082205 19.3681717 16711746
5.9520693 -13.5214663 20.4341679 16711746
3.9454234 -12.5865812 14.5961037 16711746
4.7519860 -9.8975878 19.4493771 16711746
5.2073984 -11.9266796 21.3956738 16711746
7.8103838 -13.2496662 13.4138565 16711746
0.8805397 -8.8097639 13.7336254 16711746
4.3204007 -14.2636166 19.5819092 16711746
5.3345337 -15.1749077 16.4626255 16711746
6.7211099 -12.9129000 17.7451954 16711746
5.9987249 -14.0329103 22.4261818 16711746
5.4257765 -11.3414364 19.4145184 16711746
5.4880581 -11.8025637 14.8011503 16711746
2.9989929 -11.0165291 20.6030674 16711746
9.7161884 -16.0145969 10.6869612 16711746
4.4909425 -12.2560139 15.2736149 16711746
4.7744179 -7.7387795 15.6666956 16711746
4.4210377 -11.5990467 14.7732210 16711746
4.7588930 -12.8720884 15.1332588 16711746
5.3687029 -14.6567869 16.7766075 16711746
-0.1499928 -3.6701546 11.8562326 16711746
5.2776918 -11.8354177 17.1405544 16711746
5.8836741 -13.2260265 17.4466743 16711746
3.7093561 -10.4061012 17.9678688 16711746
3.5093780 -8.6145363 17.1147919 16711746
4.9317145 -10.1924562 19.7500401 16711746
-1.0583118 -2.2311480 10.8068714 16711746
5.8882504 -15.1899958 16.7024345 16711746
-0.6269254 -2.2542126 11.2834530 16711746
-0.6343943 -2.3123028 11.3120852 16711746
4.7199798 -13.7446451 18.0199184 16711746
4.9490314 -12.9220219 16.1362171 16711746
2.8589892 -14.3462095 16.6824341 16711746
6.3230100 -13.2247229 16.1063766 16711746
2.2277317 -10.9477367 20.0654659 16711746
3.1081479 -7.8766870 17.5216198 16711746
4.1857643 -11.1680899 16.5648460 16711746
3.6536777 -12.3039236 18.7839451 16711746
7.8776197 -11.2688122 18.6555271 16711746
-0.5743060 -1.9566237 11.0646210 16711746
4.4323940 -13.1977777 14.6693249 16711746
8.9232321 -14.9056330 12.8983831 16711746
-1.1011881 -2.4847257 10.8592157 16711746
3.0769639 -8.5351257 12.3547573 16711746
5.9526711 -13.4949532 14.7002640 16711746
7.0855088 -13.8548164 22.0504532 16711746
5.1708045 -9.6837196 14.4051056 16711746
2.5380504 -8.0878477 10.9362822 16711746
8.1577396 -15.9719629 10.2779369 16711746
5.1794953 -9.7425003 16.1725578 16711746
5.6098695 -10.7695084 12.0614347 16711746
5.3522415 -13.5569448 17.7186222 16711746
3.0635927 -9.2280769 13.7641706 16711746
4.4539833 -11.5014372 14.4292212 16711746
6.8887672 -12.1170349 12.5137272 16711746
-1.0649238 -2.3015804 10.7703247 16711746
5.0170193 -15.4649420 20.5446110 16711746
5.7773533 -12.7848120 20.1883011 16711746
-0.7027561 -2.0885775 11.0440702 16711746
4.9653125 -13.5135431 12.6894007 16711746
3.3067689 -13.1364880 13.4960155 16711746
6.5858455 -9.2194614 15.6755257 16711746
5.8476300 -10.0410786 14.8925962 16711746
0.3172600 -11.5673122 13.5709171 16711746
3.9733629 -9.2438450 14.2784758 16711746
6.0333939 -12.9887505 16.7581921 16711746
3.1182327 -13.8422375 18.8245392 16711746
10.2241144 -29.9879208 11.7178879 16711746
80.9113998 -93.1957016 93.2386856 16711746
-25.0446358 -25.7960835 9.0836210 16711746
-8.4432192 -18.6440105 8.3246431 16711746
28.9018707 -147.1894989 130.3667297 16711746
45.4356766 -149.5822601 156.0161285 16711746
-30.8164291 -75.4879913 35.0997581 16711746
90.4762955 -100.8275757 100.7392273 16711746
-31.4037094 -43.3217812 25.8790741 16711746
-4.7817917 -45.4314346 26.6392517 16711746
43.5330086 -104.3398514 40.1181221 16711746
-61.9116783 -199.0444641 131.9401703 16711746
13.6800232 -18.8557835 14.4973383 16711746
-8.4405670 -12.6943827 10.4219637 16711746
0.2685059 -2.2148495 11.3269053 16711746
0.2664214 -2.2142951 11.3197126 16711746
0.2687396 -2.2181711 11.3226700 16711746
-1.1631514 -2.8621223 11.4088945 16711746
0.5163773 -2.9756136 11.4035082 16711746
-8.2912855 -18.2493248 23.2540131 16711746
18.7467251 -40.4596024 6.5052819 16711746
15.1610193 -24.2255745 17.5374737 16711746
9.1005392 -19.8185406 13.5521383 16711746
-64.5103378 -192.4864197 40.5571899 16711746
0.2417089 -2.2007003 11.3153133 16711746
-1.1720692 -3.2459965 10.7353554 16711746
5.5993061 -8.4918633 14.0008698 16711746
3.8230634 -13.2491798 17.0378971 16711746
-0.7189289 -2.5877833 11.0015287 16711746
-2.4977989 -3.9721642 11.7404594 16711746
30.4278049 -43.9293976 12.8637142 16711746
11.3093777 -57.8159180 36.8297577 16711746
-26.8732834 -24.1680927 34.0170670 16711746
-8.7775574 -18.7865467 13.3569021 16711746
-4.5203433 -13.5840073 13.8156700 16711746
7.8926706 -21.4260159 9.0057669 16711746
-24.3417511 -24.7942181 6.4741297 16711746
-5.8540125 -17.7449169 14.8876925 16711746
19.1445522 -23.1833267 21.3940220 16711746
-36.0708656 -40.4906731 10.6548166 16711746
-9.2517643 -36.3925247 24.3791485 16711746
-0.7744519 -94.0968552 3.7503483 16711746
15.7441368 -20.1181679 16.2942028 16711746
15.2416878 -13.9120798 19.1042194 16711746
41.0490112 -46.4263191 6.2459693 16711746
-7.6310616 -21.2572746 9.2364111 16711746
-12.3268070 -30.9511700 11.2080736 16711746
-5.2968631 -20.3388672 14.4331131 16711746
-0.2312901 -30.9595146 1.4948587 16711746
0.1686756 -34.4133911 1.3501819 16711746
-12.1754313 -23.3430557 1.4925834 16711746
1.9807962 -27.1753349 12.3132095 16711746
-5.3269057 -38.5335121 0.1217814 16711746
10.4784765 -25.9959641 -0.5646725 16711746
6.2319174 -23.4520016 1.2294649 16711746
9.1116438 -30.0987892 4.0319734 16711746
-7.0761895 -27.4196377 1.1119332 16711746
0.0838749 -31.2118435 1.1157101 16711746
2.8968360 -24.8070412 -0.4753618 16711746
2.4635675 -36.4205551 9.4611139 16711746
-11.1978064 -22.6135807 0.8676974 16711746
11.0326052 -28.4183941 -0.7945529 16711746
-11.1500006 -37.9915695 -0.9538277 16711746
2.3804107 -29.0263157 0.2212210 16711746
10.4174318 -29.8927116 -1.6384237 16711746
7.0482087 -37.5129890 4.3975492 16711746
4.3166542 -21.7878895 -0.4141597 16711746
-0.8547786 -12.5634670 7.8157711 16711746
11.0642328 -28.5584888 7.5026288 16711746
6.6225576 -28.0178909 1.2167960 16711746
5.9133639 -31.7226944 15.3071098 16711746
-11.3989658 -27.1104126 5.8616290 16711746
-15.4189463 -17.7894096 3.3608587 16711746
8.7962322 -44.4461937 1.6567426 16711746
4.5569739 -29.9401760 2.3361866 16711746
-5.4838200 -28.5007076 0.9442328 16711746
10.3117218 -36.0729027 7.5287137 16711746
-6.0942869 -25.7649975 4.0940185 16711746
-3.6273570 -22.1375866 3.1071248 16711746
-6.5226307 -31.4527683 -0.4485058 16711746
-8.3099365 -21.9753647 1.8828801 16711746
6.7899685 -25.8532753 2.1265264 16711746
4.0728302 -27.0297241 -1.3494611 16711746
0.9512224 -28.8406086 1.9539300 16711746
-4.3913298 -40.8265343 2.0193043 16711746
1.3449166 -20.0940742 0.2812877 16711746
1.2849456 -27.7470379 6.5659122 16711746
3.7034750 -31.8790207 0.3336585 16711746
6.8446403 -23.0696735 7.3463998 16711746
-3.3197925 -27.4318275 2.1724951 16711746
-11.6676369 -27.9566460 5.1494145 16711746
-11.6967726 -29.6142635 5.0393677 16711746
14.7309189 -33.8893204 11.7262020 16711746
5.4119630 -32.4541969 17.0607395 16711746
-1.9010048 -37.9523697 4.9354377 16711746
-9.8220091 -31.3519363 4.7616353 16711746
8.0705900 -25.8752537 1.8752059 16711746
9.1641264 -23.4666557 -0.6742749 16711746
5.0235715 -28.4789810 14.4824753 16711746
-4.6954703 -45.5519104 3.2729478 16711746
7.8406811 -17.5961342 -0.0817778 16711746
-4.0775018 -28.2488327 1.2759230 16711746
11.7542582 -32.2882385 4.6198549 16711746
-2.8454783 -34.3228760 4.3932023 16711746
-0.8905983 -45.1960411 22.5917931 16711746
2.7410011 -26.5580845 0.8353212 16711746
3.8087296 -32.5811119 -0.0065290 16711746
-12.4993124 -19.0412350 2.6778140 16711746
-6.6858845 -30.4200153 3.5551121 16711746
-5.6895843 -32.0595856 2.0413625 16711746
9.0477924 -27.0268269 11.2751884 16711746
-1.4325732 -33.6988487 0.3963001 16711746
-2.0836008 -43.6639137 4.0398293 16711746
-13.0659199 -30.0381699 7.3412890 16711746
9.1254902 -31.8069744 4.2854795 16711746
-12.2359276 -23.2633057 1.4590527 16711746
-21.2193756 -31.6316280 9.0834503 16711746
-1.2581378 -21.1720047 1.2637742 16711746
9.3474836 -33.5103378 23.9296589 16711746
5.8416157 -21.0236664 0.3199008 16711746
2.2542303 -26.6246414 9.4231901 16711746
0.8163032 -33.9546165 8.7094374 16711746
0.4648380 -36.2040138 5.9007936 16711746
-3.9414570 -30.7081432 4.4650302 16711746
10.5987825 -26.9016285 6.7578554 16711746
-15.5114021 -24.7782555 15.7906942 16711746
-15.9710131 -28.1790714 15.5778351 16711746
-1.5468267 -33.8705635 21.7968349 16711746
-3.8744004 -38.4701843 24.6534920 16711746
2.7218633 -36.4277763 17.3775272 16711746
4.6865664 -35.6643066 7.8976240 16711746
6.5216966 -22.4111862 3.9319429 16711746
-4.5870295 -22.3255215 1.4417576 16711746
-13.9237556 -17.3932209 5.3010340 16711746
-2.2700431 -26.2319508 8.9820166 16711746
-6.4423099 -12.7349482 9.0665178 16711746
11.5978251 -29.9106216 12.8556108 16711746
9.5733662 -20.2941437 4.4344635 16711746
-15.7071705 -22.7764626 9.9525919 16711746
-15.9681234 -31.4512691 2.5759866 16711746
9.1016636 -21.4619179 0.4987192 16711746
7.9862485 -29.1570568 15.4968967 16711746
5.0246077 -14.9181566 4.0701265 16711746
11.2311506 -21.3224545 5.6550598 16711746
9.9683504 -15.2534695 5.1101408 16711746
8.5740585 -14.1570988 4.4096227 16711746
12.5477152 -24.6183262 9.1414080 16711746
13.1919613 -36.1342468 11.5222778 16711746
10.2777491 -18.9141140 3.4022267 16711746
10.7179193 -13.1848011 3.1046515 16711746
10.8060064 -19.8359852 3.2546916 16711746
8.0502176 -12.4027090 4.0718241 16711746
11.3281841 -17.0967693 5.0457077 16711746
8.1467590 -17.6911716 7.4697418 16711746
7.5499530 -7.7956986 2.4319277 16711746
12.4173403 -16.3594952 3.1508162 16711746
8.0635548 -21.9352722 3.2507908 16711746
10.3086138 -17.9547901 3.3896024 16711746
10.2747765 -21.7808762 7.4514852 16711746
9.4884644 -16.1395264 1.7120639 16711746
9.3499727 -17.6641846 5.4304180 16711746
12.4928999 -31.6631565 10.3765783 16711746
13.0719891 -33.0009193 6.9071441 16711746
10.8304119 -17.2796650 1.9590741 16711746
6.2856207 -7.8037853 2.4475517 16711746
8.8455181 -11.7831697 2.6555610 16711746
9.6453629 -11.4773560 3.3573420 16711746
9.4784460 -16.6313992 2.4475625 16711746
9.9549437 -16.6998577 4.3209085 16711746
10.3429804 -23.1254692 8.2177677 16711746
9.7682428 -17.0192127 5.1440997 16711746
8.8224077 -10.0479879 2.6652598 16711746
10.2507200 -37.1399879 13.2177010 16711746
10.0068369 -9.0771141 3.8792689 16711746
11.5796795 -20.8541412 1.5731539 16711746
8.0714531 -13.9266319 2.3086376 16711746
9.7503643 -19.0984001 3.1758733 16711746
11.9540768 -22.6237640 3.1546390 16711746
13.3894444 -33.6383095 5.4810700 16711746
13.5702019 -24.7161598 4.7436466 16711746
8.6611366 -9.6114655 3.3225567 16711746
16.1256008 -15.8023109 9.5692854 16711746
-0.9592553 -41.7231674 6.5566783 16711746
12.7653294 -11.2169857 5.2562189 16711746
18.2882710 -35.0792885 0.4161603 16711746
1.3904427 -33.2201271 9.1015882 16711746
8.6512146 -9.8321743 4.2310634 16711746
7.6766343 -39.0455475 17.2719955 16711746
12.1921568 -27.4357014 12.1052980 16711746
7.6112089 -12.2689753 5.0813417 16711746
15.3783226 -30.1651611 13.1238651 16711746
13.3244190 -30.3070660 16.5148945 16711746
11.3039474 -9.7383146 3.7301214 16711746
16.2743969 -34.3764229 2.1758430 16711746
5.2216311 -8.3766699 0.6325573 16711746
9.7364969 -26.1728115 0.6214902 16711746
13.1362371 -34.8890762 -0.2545483 16711746
6.1550846 -21.6859760 0.7579902 16711746
8.2710123 -19.4760895 7.8793178 16711746
8.0681438 -14.1059895 4.8354702 16711746
10.2942533 -28.1143265 8.9135799 16711746
8.9407778 -24.3372746 9.4670677 16711746
8.1194019 -24.6157322 8.9899826 16711746
10.6558552 -16.6796818 2.6379976 16711746
12.4736814 -21.7894516 4.5256124 16711746
5.9389043 -16.6348839 4.5231543 16711746
7.3628798 -7.2302485 1.7455264 16711746
15.9247494 -23.3189812 2.5359983 16711746
-14.6145687 -39.5983658 2.8068752 16711746
9.7364254 -19.0804081 5.4857130 16711746
7.6030231 -12.1894035 5.0588274 16711746
5.7918096 -9.1706533 1.5074030 16711746
9.5845633 -17.2235794 2.4617076 16711746
8.5318079 -12.8413048 2.9059579 16711746
14.4614840 -25.4935474 5.4302263 16711746
16.8949947 -39.7314072 16.2440777 16711746
13.7262335 -25.5256691 1.8860717 16711746
8.4401350 -14.7627277 0.8681850 16711746
5.6091776 -4.4129028 0.0075428 16711746
10.2337475 -14.0859785 4.4152536 16711746
6.0277677 -7.5079756 2.3499389 16711746
6.0972404 -18.4862499 4.3433762 16711746
8.6259623 -27.4932518 6.1316934 16711746
6.1601152 -6.1933937 -0.2235528 16711746
14.5902948 -18.1380291 9.0912695 16711746
7.1138077 -8.1482706 2.5825486 16711746
8.9981031 -11.2665710 3.2855887 16711746
13.1516266 -35.1185493 13.6205416 16711746
15.6965532 -31.5991592 15.2236214 16711746
18.8417053 -30.3078575 13.2512913 16711746
5.5100536 -14.3948946 1.7904743 16711746
11.6263838 -19.8632278 2.1970546 16711746
11.4151945 -37.6331749 5.6952839 16711746
13.6714487 -37.5686302 -0.3323644 16711746
5.6871409 -38.0688324 1.5744807 16711746
12.8224020 -17.8602848 0.5294484 16711746
11.5307283 -17.5725346 6.6141028 16711746
14.5306578 -32.3342819 6.7091594 16711746
7.2746191 -13.6737823 2.4060214 16711746
5.9518204 -14.4025059 3.3412435 16711746
8.5135870 -14.6696281 3.8371196 16711746
8.7559595 -17.2137871 3.9891574 16711746
4.9361749 -20.7829170 5.5182185 16711746
9.8091564 -10.2984905 3.0506220 16711746
9.3394852 -10.3426313 2.3540444 16711746
9.9699497 -13.8213854 4.9447832 16711746
10.2657318 -13.3093309 2.2264493 16711746
13.7774754 -21.7849178 2.9578536 16711746
7.0768957 -8.4413528 1.7925603 16711746
7.2344341 -7.5145698 1.2922533 16711746
-13.3931789 -18.3298416 2.7609041 16711746
-10.8369389 -28.4038982 5.4442301 16711746
-14.8492813 -40.5818748 4.2793198 16711746
-0.3115899 -38.4714203 13.3777094 16711746
-0.7811205 -36.2611732 14.3255854 16711746
-18.8268433 -21.6114616 11.6615763 16711746
0.4921852 -28.5184479 6.2741060 16711746
7.2420325 -7.5191259 1.3473282 16711746
6.5706611 -6.7379527 2.4501367 16711746
-1.3519143 -32.9996262 20.2179909 16711746
5.3091583 -10.4944925 2.4837053 16711746
-16.1956921 -43.8326035 4.6094480 16711746
5.3299198 -12.3747835 1.0893404 16711746
6.8744545 -10.9631519 1.2211219 16711746
12.1914673 -18.4439983 3.4966073 16711746
-7.8771300 -10.9357157 6.2894168 16711746
12.3182402 -23.5225830 2.2568710 16711746
1.3109964 -45.6879997 17.4537868 16711746
12.7321005 -20.8659000 6.2175303 16711746
6.6840301 -9.1485462 3.6931608 16711746
5.2537589 -5.3512945 0.3741840 16711746
2.3900428 -30.5745964 4.5715618 16711746
8.2031136 -11.7861128 3.7057424 16711746
11.5330725 -25.4680157 8.4503336 16711746
5.9955764 -34.9752121 9.6163874 16711746
7.1746678 -36.1885262 4.0695448 16711746
-6.9344034 -10.3825693 3.2857423 16711746
-0.2071806 -26.9423771 3.6563113 16711746
8.4359922 -9.3312540 0.1364887 16711746
10.8016729 -14.2564526 3.6939499 16711746
21.2664566 -28.4935493 -0.3402199 16711746
5.4122787 -7.7451210 0.9480231 16711746
8.9266777 -8.9602203 3.7136056 16711746
6.6525745 -19.0440521 9.3928452 16711746
10.2127514 -15.5329990 6.3045874 16711746
15.7762222 -24.4542522 3.2284775 16711746
9.5957565 -18.4458351 2.5287812 16711746
9.3476210 -14.6646986 5.4539657 16711746
12.4130125 -21.4820499 5.5188460 16711746
13.2516661 -18.9204521 10.2710352 16711746
12.8692522 -22.5396652 14.0080004 16711746
8.0234785 -6.8237009 3.7347810 16711746
6.5368800 -5.4627924 2.6192076 16711746
9.7111177 -25.8558006 0.2882182 16711746
14.3388586 -38.7156868 -0.1980281 16711746
14.2159300 -34.4396591 17.7200241 16711746
10.4067240 -12.6832218 7.0232997 16711746
3.1038296 -13.9055653 2.0286264 16711746
-15.3778210 -36.9530029 8.2929573 16711746
12.9719982 -20.8684807 1.1896728 16711746
1.0325184 -27.6842022 7.8633413 16711746
18.8691311 -33.6026726 10.7031412 16711746
7.8409615 -11.3906765 3.3624218 16711746
14.7174559 -32.7566643 8.3772640 16711746
8.1340094 -8.0502539 2.4804826 16711746
16.2019577 -35.3404083 7.1033373 16711746
12.0148973 -34.3197479 10.0638781 16711746
17.3255215 -40.8705139 15.2548962 16711746
11.8755198 -26.3640995 8.0189476 16711746
6.1287708 -16.0216961 -0.7981958 16711746
8.1997671 -9.7892723 2.8499947 16711746
7.4641151 -9.0276098 2.8959243 16711746
14.4888563 -17.5347939 2.6521878 16711746
1.1686558 -1.5970613 0.6117492 16711746
11.1246376 -21.6324539 7.4940710 16711746
-5.3771582 -20.0090256 14.0041466 16711746
13.3544436 -31.4733334 13.1727877 16711746
11.6131458 -19.6046429 4.0340195 16711746
8.6324129 -15.3578348 1.9793537 16711746
10.7571526 -21.1594181 4.4401145 16711746
8.1808872 -16.4091072 5.3721771 16711746
7.3296833 -12.8335390 4.1109934 16711746
14.5070763 -26.9081631 2.0053999 16711746
16.4873009 -20.5506859 17.4162769 16711746
13.3478117 -28.3075638 7.7534366 16711746
10.4796495 -16.6374149 11.4585953 16711746
10.0570230 -13.1974545 9.6622162 16711746
7.9601369 -21.5729198 7.0033402 16711746
9.1319160 -26.6825027 9.0273447 16711746
6.6809440 -8.2357359 2.5376995 16711746
7.9109583 -14.8754749 4.0485106 16711746
17.1635590 -24.9646664 19.1607018 16711746
7.4917240 -6.7249718 3.3366127 16711746
7.8438377 -14.9991970 2.6320038 16711746
14.8537798 -28.2719536 2.9216304 16711746
10.4806290 -32.6920967 10.1715679 16711746
10.4725103 -18.1936893 5.1060195 16711746
9.8674564 -22.4626408 8.0829229 16711746
0.0170098 -4.3302016 2.0236444 16711746
13.3351507 -18.2614555 13.8809795 16711746
15.2818050 -20.4599609 17.2311859 16711746
14.5002956 -35.7493172 13.1803732 16711746
7.4018092 -8.2775421 1.8767675 16711746
11.4209175 -12.5680971 2.2332153 16711746
14.7832556 -28.1277504 9.7059860 16711746
8.7533684 -10.9831095 1.6777377 16711746
5.6263599 -6.9444046 2.1979890 16711746
3.2200840 -12.2250690 2.4045272 16711746
4.1977978 -10.1686954 1.4767917 16711746
2.9088793 -7.2439322 1.5151701 16711746
2.8495090 -11.6789026 2.6088669 16711746
4.4047008 -7.4902749 4.7757149 16711746
-0.0253785 -19.5145683 6.7250409 16711746
6.6613140 -8.0273037 6.3341470 16711746
5.8023181 -7.5317492 6.1991005 16711746
8.1969309 -13.9790630 4.3464847 16711746
6.4294057 -7.2775717 2.4048543 16711746
8.0710011 -15.5062160 8.0724325 16711746
12.1727123 -18.1691380 13.6949883 16711746
5.8833065 -6.4890614 1.8674320 16711746
13.9433908 -20.0312481 11.6302462 16711746
-1.6606619 -2.5768957 2.0037122 16711746
3.1433322 -4.3332081 0.9650741 16711746
2.6200981 -3.0323267 1.1304839 16711746
3.4874303 -7.1223559 2.0959513 16711746
2.6200552 -8.5718222 5.5368447 16711746
3.8442123 -9.0686026 6.9056373 16711746
6.5259047 -8.3909521 4.4960294 16711746
4.5609598 -4.1654396 2.4488652 16711746
-0.7829029 -3.3950367 1.6887789 16711746
4.1246395 -7.3157449 4.8122387 16711746
11.5212145 -18.0534267 9.0962591 16711746
13.6614943 -18.7927113 9.7423620 16711746
11.0390358 -17.3484173 8.7177134 16711746
8.0480328 -7.6653962 4.4065719 16711746
11.4861174 -16.9636517 8.8483162 16711746
16.4615707 -32.6933365 18.6491871 16711746
9.8519793 -12.0510311 6.5440698 16711746
9.2838964 -11.5913038 8.9516706 16711746
10.4240427 -12.5399389 8.0014725 16711746
8.0457525 -11.2676687 7.1550970 16711746
3.5263960 -3.5570862 1.1070594 16711746
-2.6955700 -17.3842068 10.6854620 16711746
5.1649089 -5.8957496 3.3108592 16711746
3.4412339 -5.3378634 2.4813230 16711746
3.5244055 -4.2252555 1.7275904 16711746
-6.4045577 -8.2651863 5.1231537 16711746
4.8219843 -4.0158119 2.3319814 16711746
5.6756115 -5.0216675 2.6751692 16711746
3.6500542 -3.5409415 1.3376844 16711746
3.5051296 -3.6647131 1.5842981 16711746
2.6839042 -4.1945081 2.0670683 16711746
4.2213712 -9.4744959 7.9619360 16711746
3.4286451 -3.0035501 1.2330598 16711746
4.2333736 -5.8835402 2.7834668 16711746
8.9618998 -10.6749821 7.0486054 16711746
6.2796354 -7.9332523 3.8570659 16711746
4.4005208 -4.1033282 2.5402703 16711746
5.3019753 -4.5619278 2.9809511 16711746
4.9529276 -4.5773096 4.4651136 16711746
2.5822647 -2.5755026 0.9718724 16711746
5.5865769 -4.2477016 2.1634939 16711746
5.0141082 -4.7534413 2.8594456 16711746
7.0108910 -10.0574236 5.2042360 16711746
6.8192868 -7.2298579 4.6206870 16711746
9.8076124 -12.8094654 8.1356144 16711746
4.4370346 -6.2564182 2.9520674 16711746
13.2797012 -12.4650888 8.2053213 16711746
13.0269527 -13.2747231 10.1468239 16711746
3.1134377 -10.8381910 6.5392179 16711746
2.1144617 -2.7083719 0.7019578 16711746
3.4317985 -2.7501967 0.9095984 16711746
3.3784239 -2.4535160 1.0213189 16711746
3.7784963 -3.2493079 1.4597431 16711746
2.0833089 -3.0237234 1.7573833 16711746
-1.9105179 -2.2653413 1.7098902 16711746
-1.4855028 -1.9585608 1.0539173 16711746
-1.7728562 -1.9594139 1.2113245 16711746
2.5211468 -2.6216147 2.0881121 16711746
-2.6455410 -3.2556186 2.3154132 16711746
-1.9072101 -2.6055844 1.2329540 16711746
-1.5510398 -1.7800076 1.8725320 16711746
-1.1545871 -1.7417397 0.9913170 16711746
-1.5246794 -2.0266485 1.0649222 16711746
0.2974266 -3.5570207 3.4213557 16711746
-1.0687656 -2.3642876 0.9153990 16711746
-0.1758283 -2.0920079 1.9364134 16711746
3.6684124 -4.4871120 1.6249022 16711746
0.7926989 -2.8451133 0.9746863 16711746
3.0045896 -2.8690581 1.0780857 16711746
-1.0738385 -2.0942447 1.8626602 16711746
0.9116191 -2.3038659 1.3078897 16711746
11.0625591 -15.9922180 11.6619205 16711746
5.2162576 -4.9186687 1.9376640 16711746
6.5089774 -7.9282975 4.5502763 16711746
6.2387486 -14.6291332 12.0132313 16711746
7.6082997 -5.2511053 2.0965989 16711746
8.6329222 -11.8245382 9.1318693 16711746
5.1375766 -5.3695211 3.4286714 16711746
3.8430810 -3.4929628 1.2558382 16711746
-1.1242959 -6.2402334 4.0041332 16711746
12.9054718 -12.2481394 9.7489967 16711746
7.6982007 -7.2311788 4.8759470 16711746
9.0777693 -18.2234135 17.2739697 16711746
13.1434031 -17.5192127 12.4428406 16711746
13.5249338 -17.8715611 10.8126030 16711746
9.6341314 -20.3209362 11.0513353 16711746
4.3597751 -2.8908877 1.4647706 16711746
5.2962899 -4.4894662 3.8186860 16711746
-6.8161793 -24.1835785 11.0881634 16711746
-0.7500677 -3.0014513 2.1214523 16711746
4.8559022 -9.7548800 6.0727983 16711746
2.1850116 -2.2353399 1.0141373 16711746
4.9898934 -6.2201681 3.9793386 16711746
0.6899743 -0.7519897 1.1865381 16711746
1.4457053 -3.2384717 1.5091703 16711746
5.6959095 -3.7261353 3.5046246 16711746
1.9708402 -9.6543226 2.9161789 16711746
6.9705524 -6.0336280 4.2915797 16711746
8.8123093 -17.6671104 9.0832081 16711746
18.4665089 -17.4226742 15.8017950 16711746
18.6563606 -22.8944798 21.9434433 16711746
8.3083115 -12.2251863 8.8130093 16711746
5.6709461 -9.7176304 5.8805861 16711746
3.9414389 -5.3690867 3.2116404 16711746
2.4959652 -3.9439476 2.4180119 16711746
0.8848339 -2.7989466 1.8950813 16711746
1.3986849 -4.1545897 2.1350617 16711746
2.2344828 -3.4920771 1.3811897 16711746
1.7356995 -3.6535282 2.4962697 16711746
1.6289114 -3.8926504 2.2432280 16711746
2.4708216 -4.3452735 2.1150620 16711746
1.6552382 -2.9241066 1.4287766 16711746
1.6087221 -3.1627698 1.5051942 16711746
2.1666873 -3.4240770 1.6185788 16711746
5.3245254 -6.1673126 3.7671747 16711746
4.2389951 -4.9575043 3.2048440 16711746
2.4547977 -4.3265433 2.4273343 16711746
2.9801462 -7.5826464 5.9479256 16711746
2.5207968 -3.4290550 2.3254044 16711746
3.0141656 -2.5525858 2.0365825 16711746
3.7670255 -5.5725918 3.7089534 16711746
14.6912727 -18.7662830 17.4985409 16711746
15.8140287 -19.7553844 15.1222839 16711746
5.1204185 -5.5672545 5.1551428 16711746
15.0200415 -26.8538952 14.3542442 16711746
15.4100208 -16.5691357 19.9289513 16711746
9.8561935 -20.4848042 9.2387295 16711746
7.1638594 -25.3547268 8.3258410 16711746
0.5931016 -2.8014367 2.6426229 16711746
-1.8847115 -9.3488874 2.0105207 16711746
1.9796842 -3.1710360 2.9895723 16711746
20.6047516 -25.9771461 24.1263885 16711746
4.1821642 -3.4806545 2.2150688 16711746
8.9139290 -7.8504033 6.1433296 16711746
1.3957045 -2.6970422 1.5558704 16711746
2.2949669 -2.5039060 2.0673380 16711746
0.7515414 -4.1733117 3.4150405 16711746
3.0483315 -3.0845354 2.3308570 16711746
3.5831933 -14.9985809 14.0659151 16711746
3.1264720 -3.7754326 2.5413435 16711746
6.5016456 -14.5965805 5.7324929 16711746
6.8843012 -14.1118517 13.7294512 16711746
25.5415821 -29.7061214 30.4934654 16711746
19.3896999 -22.6234093 14.4650059 16711746
20.5077381 -23.9913673 24.5061092 16711746
16.9588470 -35.8512955 30.8951530 16711746
7.3266978 -13.8352528 13.9418869 16711746
7.8128500 -12.8391886 13.3296366 16711746
-2.9477906 -22.4684753 13.1241512 16711746
18.9524784 -30.8998470 6.6379104 16711746
-4.3211513 -20.8659515 11.6910381 16711746
14.6360569 -20.0537796 12.8259048 16711746
24.1919403 -29.4299374 26.1175880 16711746
10.8102798 -14.6378593 9.7537527 16711746
-2.1599777 -15.4767675 10.3584747 16711746
5.9676156 -11.2416630 6.4105334 16711746
27.9622726 -37.4066086 28.8501225 16711746
3.9240267 -6.5915275 4.5785079 16711746
5.6470270 -8.9712505 6.2958646 16711746
11.8221827 -20.6005459 19.2391777 16711746
5.2273641 -22.8951035 16.7769947 16711746
9.0170965 -31.6256542 20.9873962 16711746
14.2774572 -21.9443932 10.8012018 16711746
3.7374246 -10.4647646 9.3929653 16711746
0.1913432 -1.3015321 2.2163954 16711746
22.2062607 -25.9303551 18.2786007 16711746
0.8303248 -2.5233603 2.5036778 16711746
1.7069105 -1.8312793 2.2257960 16711746
24.8525105 -29.1933498 20.3079796 16711746
1.2280258 -2.6621292 2.6809201 16711746
-6.9938650 -27.9962616 12.1483316 16711746
1.5868778 -5.8202710 5.1276975 16711746
11.1603947 -48.8456116 41.1318321 16711746
14.9152689 -35.4917526 28.1607208 16711746
13.0659637 -46.9319954 31.1229458 16711746
11.9012794 -40.8735733 26.1184940 16711746
7.2722397 -14.0104113 9.0636749 16711746
7.7406664 -19.7897129 16.7343254 16711746
7.3030782 -10.5003090 7.6921549 16711746
3.5178525 -8.8537540 3.8047168 16711746
5.6146636 -6.6932230 3.9308765 16711746
36.7531395 -40.1062202 46.8764343 16711746
-2.8726339 -60.3180428 38.0812607 16711746
20.1221752 -25.7227783 22.5765324 16711746
-2.5342531 -6.7629714 3.8414321 16711746
20.3811703 -21.9665623 27.6269073 16711746
1.3765403 -3.5872324 4.2425127 16711746
9.8881454 -13.4797554 9.4711046 16711746
15.2992592 -21.6821079 14.2535887 16711746
-3.5509968 -28.5589924 15.6167612 16711746
14.0185432 -18.7222481 15.8811541 16711746
20.5025692 -21.5923176 26.4232559 16711746
16.9183083 -48.1803818 35.7454529 16711746
11.9900856 -31.6398849 25.0916214 16711746
6.3304877 -9.1463480 6.0904222 16711746
4.9983501 -5.5413995 3.5542297 16711746
14.2794752 -17.6736851 17.7340660 16711746
-4.1359973 -12.8923197 2.6187360 16711746
-10.4232569 -94.3393936 52.1347923 16711746
27.3407974 -34.6596909 26.3440857 16711746
48.6498184 -63.6249428 48.0158920 16711746
18.6728859 -20.7191582 23.0416031 16711746
6.3112364 -14.1880970 13.2444344 16711746
7.1490536 -19.7813511 15.2574339 16711746
8.9308109 -8.4645157 4.8204875 16711746
0.6471032 -21.6743164 12.9268379 16711746
8.2521858 -42.1455269 26.7155514 16711746
19.5101013 -23.8851223 21.2623539 16711746
14.7622213 -18.7878971 15.1579409 16711746
8.1743736 -11.2708712 8.2963963 16711746
-4.0530891 -39.6362343 15.5195599 16711746
-4.1000462 -50.4030075 35.4042130 16711746
9.6324196 -16.7169151 10.0867615 16711746
1.8757420 -5.6367974 5.7301803 16711746
20.7810440 -20.9305763 27.9453335 16711746
-2.9840548 -26.3914280 9.8831282 16711746
1.5192447 -6.4774756 6.1445966 16711746
-4.8496318 -27.5979691 9.3632650 16711746
2.4321568 -8.8150005 7.6226454 16711746
5.0838885 -12.1882238 6.7070827 16711746
2.8641212 -76.1797256 57.7610321 16711746
2.4934738 -8.9853544 6.1202703 16711746
-0.9135940 -23.3472080 16.4589958 16711746
15.0346460 -28.3776741 22.0377636 16711746
9.6915092 -16.2559624 15.7273388 16711746
15.2011976 -18.6400394 15.9238453 16711746
2.1298523 -6.5690246 6.8138070 16711746
9.8698349 -18.4988804 18.2753162 16711746
-0.9440460 -45.7010880 33.4460678 16711746
1.7257303 -13.4465265 3.1675022 16711746
-3.2261446 -41.5001411 28.3502502 16711746
17.7542992 -32.0873756 11.9885874 16711746
21.0971870 -48.1184883 8.4392052 16711746
1.9385550 -11.3232498 8.5688362 16711746
3.0779116 -7.8170228 7.5439167 16711746
35.5537949 -45.2765884 32.1206398 16711746
-0.1628080 -6.4595366 6.3092980 16711746
-2.6421776 -16.4966488 6.3288403 16711746
6.7573934 -19.2184601 6.5318546 16711746
31.5152550 -38.0861778 30.8372536 16711746
3.0666625 -23.1323700 11.6366043 16711746
23.7164230 -29.4027672 24.3112793 16711746
8.3411884 -21.4665203 10.0719709 16711746
58.3853378 -79.6659241 55.1931000 16711746
20.7967072 -34.4853134 22.4916553 16711746
23.2498035 -28.2181072 26.9836426 16711746
25.8349266 -30.0872860 27.3339710 16711746
7.8228364 -26.5040436 18.9122963 16711746
14.2842684 -18.5428658 16.8235378 16711746
7.7774301 -11.4948015 8.1205711 16711746
17.2590885 -22.6940556 17.3868561 16711746
27.5983677 -31.0398197 30.8560257 16711746
12.3910456 -16.1722393 11.1946974 16711746
-2.3329988 -30.3141327 20.2583294 16711746
14.0729570 -16.9190273 10.3658915 16711746
43.5596123 -79.6313629 0.9184734 16711746
2.7310922 -11.0241098 9.3619595 16711746
3.3299618 -12.6447134 10.3237400 16711746
48.0000343 -65.1940384 48.7285652 16711746
9.2611513 -17.5827427 17.0080605 16711746
20.4647312 -28.3746929 22.5986538 16711746
11.1863499 -14.9701805 10.3136768 16711746
17.3077888 -38.6096802 30.7721424 16711746
15.4084129 -87.5114288 43.4315796 16711746
15.6501589 -35.2901573 28.5928650 16711746
-13.1963511 -45.1324081 21.9159679 16711746
19.5686798 -22.4116669 24.5962620 16711746
3.9932671 -10.3535128 5.5944681 16711746
20.2675056 -23.3430500 23.1396561 16711746
-3.1644802 -16.0450191 10.6309891 16711746
29.8192577 -65.0629654 10.8465319 16711746
6.9450130 -8.6134558 6.4047003 16711746
10.4202194 -17.3771687 11.1605053 16711746
19.2396221 -31.7683868 20.9254608 16711746
-2.2601914 -11.7376604 8.5584660 16711746
8.8202868 -6.5057101 6.5028129 16711746
-0.2944336 -5.2981896 4.3916831 16711746
38.5076332 -41.6795464 47.7040787 16711746
13.5436726 -19.3810501 10.8091278 16711746
4.2229438 -4.4175005 5.6733665 16711746
74.8318329 -88.7673492 70.9864883 16711746
0.2716612 -9.0729294 4.9867163 16711746
3.6432655 -6.0287304 6.5404935 16711746
7.8483396 -19.6293182 6.8107700 16711746
9.2829723 -23.0507030 10.9625750 16711746
33.4687538 -36.3401413 41.2990494 16711746
8.5811596 -16.6276340 8.5025492 16711746
-2.1542954 -260.4224854 80.5033951 16711746
65.1204681 -74.8148193 76.4885941 16711746
7.2208328 -7.3465281 6.9713526 16711746
28.8639126 -33.2882652 34.9760628 16711746
16.8107929 -36.1081810 27.5435448 16711746
4.6018891 -14.1109715 4.5968428 16711746
4.9727068 -5.4819250 5.4919090 16711746
14.8896847 -19.6269321 15.9277964 16711746
3.1373122 -10.1895132 9.7617731 16711746
4.5614352 -39.3326607 5.2734895 16711746
18.1967087 -24.1569138 19.8133011 16711746
-3.5151176 -20.6157360 13.2620621 16711746
3.2959216 -5.9555712 6.0473619 16711746
11.7550955 -13.5451288 15.0672274 16711746
1.5057235 -3.0536990 5.0219092 16711746
1.6474578 -5.3011703 6.3118248 16711746
1.1704295 -3.7496624 5.6372142 16711746
0.7816814 -3.8310683 5.3932443 16711746
23.2149334 -26.1264687 24.6349316 16711746
34.1006279 -58.5123367 30.5048065 16711746
23.7357941 -29.0446777 27.3038216 16711746
30.2655373 -33.3629570 36.3172379 16711746
38.7477074 -41.7645264 47.2891731 16711746
-0.9834172 -8.8166285 6.2193327 16711746
8.5298223 -9.1794157 10.3883657 16711746
13.7910423 -45.2315941 28.6483326 16711746
3.9963899 -4.2225251 6.7439718 16711746
-12.3698425 -38.1278954 9.8406677 16711746
3.3149669 -14.2237320 9.4322691 16711746
16.8652897 -41.1028900 26.4853439 16711746
17.9106483 -28.0450344 17.6280842 16711746
83.3367538 -99.1390839 90.7644501 16711746
10.1582241 -20.6168327 18.7042542 16711746
19.1727524 -24.6857376 21.7327366 16711746
10.9501295 -21.8551922 20.7682762 16711746
-53.7005119 -122.0310745 4.7739329 16711746
16.6971416 -22.8044682 16.2105141 16711746
16.7334080 -31.9448376 14.4462395 16711746
18.3352203 -32.4193535 12.7829733 16711746
2.6805575 -8.3612747 8.6744900 16711746
5.7044940 -35.6673012 16.5811596 16711746
5.5326390 -30.6645260 14.1155920 16711746
12.8059874 -61.5202637 35.6723061 16711746
-11.3338518 -39.4943085 6.8580794 16711746
15.8472986 -45.2347717 30.2346478 16711746
11.3350000 -20.3407154 20.3161907 16711746
3.3763587 -8.3325510 9.0147409 16711746
23.4683189 -28.4950962 24.1640244 16711746
5.4381566 -24.8606834 16.1322575 16711746
13.3814583 -49.0484352 28.8465958 16711746
2.7262735 -4.5333762 6.6395054 16711746
1.2891036 -4.2736273 6.2276120 16711746
0.2437284 -7.7000675 8.8769083 16711746
-5.5027151 -23.6914177 14.6348991 16711746
16.8120003 -28.0603542 17.6977577 16711746
-4.8524532 -24.1217480 15.0244055 16711746
-1.1972916 -23.2072449 7.6362810 16711746
-3.5805600 -85.8656921 41.4519768 16711746
68.4900513 -72.1399994 75.5587006 16711746
23.0825157 -27.1479492 21.7274036 16711746
3.0777659 -12.4981508 6.6587982 16711746
3.3646255 -13.1539011 9.9107428 16711746
17.9468861 -23.3367729 20.4430256 16711746
15.5390377 -18.3124771 16.5665226 16711746
6.5831900 -31.7658749 18.3865013 16711746
2.0713272 -8.7869024 8.1473751 16711746
10.0513039 -23.5859585 17.7203026 16711746
14.0006781 -19.0606766 14.6780453 16711746
5.6090689 -37.7730446 18.3383484 16711746
-1.1523339 -13.7843838 6.6142201 16711746
2.7982492 -3.4787595 6.2480803 16711746
3.5768445 -14.3397388 11.0054436 16711746
1.4350294 -8.1447487 5.7696166 16711746
6.1471601 -27.4778404 24.1409950 16711746
11.0663919 -26.3216324 21.8009548 16711746
20.0884171 -28.9379482 22.5667572 16711746
-5.4228830 -71.0308914 30.9273243 16711746
31.6841049 -30.6414223 20.5363064 16711746
27.3340168 -25.9780655 16.7936077 16711746
6.8891931 -12.0912085 6.7086759 16711746
2.4930062 -16.1316090 11.1499386 16711746
7.0243907 -12.5003300 6.7068810 16711746
5.3883066 -39.3410263 19.5435448 16711746
41.4311600 -48.6554260 35.1717834 16711746
5.3016963 -14.6441488 12.1270542 16711746
4.8841896 -28.7436523 15.4442272 16711746
-1.9865221 -22.9981537 15.7138557 16711746
57.3571739 -54.5034714 32.6919098 16711746
30.1223145 -37.5888481 23.4432373 16711746
114.5827103 -130.0160828 105.1844101 16711746
23.8562317 -38.5576401 19.7276001 16711746
23.0783710 -29.9125347 17.5810852 16711746
20.2045937 -27.0183201 18.9726772 16711746
19.5155983 -31.1920891 20.9320431 16711746
-7.4547439 -34.1141663 22.1985569 16711746
41.0257416 -53.7602997 36.7267380 16711746
28.9250088 -28.4775791 17.8489304 16711746
41.6019325 -58.4046745 42.4023132 16711746
-2.7273431 -22.0520039 14.8503580 16711746
106.8460159 -147.6805878 62.0726089 16711746
0.3780715 -76.4468994 21.2922802 16711746
-8.9995813 -41.1602364 21.1569176 16711746
13.1870823 -47.5439873 29.9184742 16711746
6.4794555 -37.8149757 31.0428200 16711746
133.8838654 -215.2174225 28.2029610 16711746
2.2162969 -11.4975462 9.4731188 16711746
3.6215315 -13.1732864 11.4011354 16711746
21.0091133 -18.9968586 13.2609997 16711746
24.5790253 -38.3274536 26.0925980 16711746
17.2177849 -34.7548714 31.0935631 16711746
8.3265257 -29.2810326 28.4188709 16711746
-4.4645162 -29.9543056 12.8647985 16711746
25.1013718 -27.7156868 19.0749245 16711746
15.2802534 -29.8746891 15.4517746 16711746
6.2391734 -10.6057425 11.2434406 16711746
19.7965183 -34.4102058 19.5088234 16711746
-1.5033824 -29.8390961 9.6657238 16711746
9.2352896 -29.8766289 28.0837040 16711746
7.6698217 -24.8605423 11.7453032 16711746
5.6777768 -9.2277985 9.6986370 16711746
77.6234512 -93.9046173 91.2084351 16711746
2.5274203 -10.6658220 10.5647230 16711746
11.3865900 -22.4700680 16.7463913 16711746
11.2871056 -29.0403576 24.6608162 16711746
7.5977998 -30.6096897 18.5209141 16711746
-1.2591585 -9.3949270 6.3483229 16711746
