# .PCD v0.7 - Point Cloud Data file format
VERSION 0.7
FIELDS x y z rgb
SIZE 4 4 4 4
TYPE F F F F
COUNT 1 1 1 1
WIDTH 127
HEIGHT 1
VIEWPOINT 0 0 0 1 0 0 0
POINTS 127
DATA ascii
0 0 0 16777215
0.071320817 -0.029201008 0.14826511 16777215
0.12269089 -0.057377562 0.26084024 16777215
0.1658363 -0.077779636 0.38396734 16777215
0.32458496 -0.15197775 0.78809774 16777215
0.36276126 -0.16856045 0.9011718 16777215
0.42204037 -0.2155728 1.0778837 16777215
0.52307969 -0.27677903 1.3249304 16777215
0.72336686 -0.33932993 1.8063949 16777215
0.77971184 -0.39197505 1.9861687 16777215
0.87171668 -0.4377715 2.2277997 16777215
0.95736825 -0.47645018 2.4918187 16777215
1.0295453 -0.53396928 2.7749045 16777215
1.092218 -0.60010749 2.989815 16777215
1.2180264 -0.63036776 3.2758291 16777215
1.3334788 -0.65775305 3.4995279 16777215
1.4430257 -0.72806448 3.7109473 16777215
1.5619854 -0.78409392 3.9888852 16777215
1.6907036 -0.81956923 4.3260813 16777215
1.7706771 -0.86177266 4.5926518 16777215
1.8593626 -0.92624247 4.8888516 16777215
1.9718937 -0.95219266 5.1530485 16777215
2.0933964 -1.0165685 5.4485612 16777215
2.2164888 -1.1076347 5.7653031 16777215
2.3239799 -1.1289452 6.1508074 16777215
2.4262235 -1.1835058 6.4697666 16777215
2.5295796 -1.2706819 6.8210688 16777215
2.6569195 -1.3140223 7.1587768 16777215
2.765305 -1.3926674 7.5049272 16777215
2.853117 -1.4567114 7.8796134 16777215
2.9370456 -1.5032667 8.2741013 16777215
3.0456924 -1.6102763 8.6552773 16777215
3.1604605 -1.6507626 8.9640274 16777215
3.2808342 -1.7251347 9.2699528 16777215
3.378974 -1.7931361 9.6242094 16777215
3.4771004 -1.8410965 9.9762449 16777215
3.5751216 -1.9371805 10.306512 16777215
3.6917403 -1.9743661 10.661716 16777215
3.7860851 -2.0661063 10.965517 16777215
3.8722692 -2.1122682 11.326046 16777215
3.9595649 -2.1847854 11.737575 16777215
4.0301175 -2.2571537 12.052012 16777215
4.1868024 -2.3256369 12.573612 16777215
4.2668023 -2.3843913 12.917489 16777215
4.3208318 -2.401871 13.235964 16777215
4.3504725 -2.4572308 13.558711 16777215
4.4044251 -2.4942749 13.842374 16777215
4.4884176 -2.525208 14.136228 16777215
4.5345368 -2.5790088 14.327884 16777215
4.5943561 -2.6259131 14.588736 16777215
4.6518798 -2.6589603 14.877227 16777215
4.7131743 -2.7614148 15.282165 16777215
4.8779087 -2.8743532 15.895215 16777215
4.9344506 -2.936157 16.248016 16777215
5.0118928 -3.0079792 16.587902 16777215
5.0698667 -3.0574441 16.94709 16777215
5.1619272 -3.1247785 17.395874 16777215
5.2254691 -3.1821105 17.744287 16777215
5.2826786 -3.2506528 18.157909 16777215
5.3584394 -3.2936659 18.565321 16777215
5.3817883 -3.3830326 18.880751 16777215
5.4031787 -3.4085104 19.23546 16777215
5.4032807 -3.4867575 19.588053 16777215
5.4615903 -3.5178232 19.915968 16777215
5.5066819 -3.5656719 20.18185 16777215
5.528821 -3.6030893 20.45109 16777215
5.6008205 -3.6422462 20.78269 16777215
5.6271005 -3.7068925 21.028795 16777215
5.6802363 -3.7461617 21.307545 16777215
5.7192197 -3.7760365 21.508297 16777215
5.7408633 -3.8084862 21.706936 16777215
5.7791409 -3.8125782 21.943312 16777215
5.7737994 -3.8601103 22.183508 16777215
5.8129153 -3.9000106 22.443087 16777215
5.8606677 -3.9218087 22.657389 16777215
5.8659115 -3.9788773 22.838184 16777215
5.880023 -4.0205956 23.081102 16777215
5.8841386 -4.0616179 23.354195 16777215
5.907743 -4.1226048 23.619659 16777215
5.9482675 -4.1650105 23.905338 16777215
5.9889836 -4.2172971 24.216908 16777215
6.0016561 -4.264473 24.534439 16777215
6.0163269 -4.3196197 24.777706 16777215
6.0552516 -4.3335171 24.977306 16777215
6.0768528 -4.4056234 25.183134 16777215
6.0921502 -4.4381194 25.380697 16777215
6.1174355 -4.4709253 25.615974 16777215
6.1378531 -4.5330768 25.805307 16777215
6.170362 -4.5893989 26.196178 16777215
6.1817908 -4.6222687 26.399832 16777215
6.1636443 -4.6537561 26.601887 16777215
6.1639099 -4.7006364 26.798162 16777215
6.1776195 -4.7370572 26.949167 16777215
6.1863351 -4.7747059 27.134565 16777215
6.1374006 -4.8384581 27.424213 16777215
6.1368346 -4.8728943 27.561626 16777215
6.1537189 -4.8775897 27.701372 16777215
6.1579418 -4.9186325 27.830738 16777215
6.1465554 -4.9372621 27.947145 16777215
6.1013207 -4.9722767 28.086428 16777215
6.1054602 -4.9719048 28.169218 16777215
6.1471453 -4.9969516 28.262503 16777215
6.1110601 -5.0308309 28.343204 16777215
6.0834184 -5.0666866 28.366446 16777215
6.0866256 -5.067348 28.373446 16777215
6.1473942 -5.0562577 28.390965 16777215
6.1369061 -5.0613117 28.38846 16777215
6.1357727 -5.065659 28.390276 16777215
6.1065769 -5.0608673 28.379299 16777215
6.1021919 -5.0682378 28.376259 16777215
6.1034064 -5.0641723 28.373175 16777215
6.1040449 -5.0613441 28.373432 16777215
6.1081843 -5.0649371 28.376545 16777215
6.115366 -5.0628533 28.372173 16777215
6.1173687 -5.0687995 28.361708 16777215
6.1150317 -5.0668721 28.35725 16777215
6.1166224 -5.065239 28.359152 16777215
6.102685 -5.0651007 28.356562 16777215
6.0922585 -5.0662947 28.357132 16777215
6.087275 -5.0692053 28.358276 16777215
6.0971508 -5.0821719 28.385834 16777215
6.0496006 -5.0718985 28.382978 16777215
6.0606375 -5.0736384 28.429377 16777215
6.0379038 -5.0408816 28.479776 16777215
6.0379758 -4.9254718 28.570831 16777215
6.0058308 -4.7709155 28.640774 16777215
5.8424354 -4.8324323 28.621286 16777215
