# .PCD v0.7 - Point Cloud Data file format
VERSION 0.7
FIELDS x y z rgb
SIZE 4 4 4 4
TYPE F F F F
COUNT 1 1 1 1
WIDTH 1195
HEIGHT 1
VIEWPOINT 0 0 0 1 0 0 0
POINTS 1195
DATA ascii
6.9175243 -4.8165293 29.826609 16711746
5.6600571 -4.6506329 28.944496 16711746
6.0274267 -4.6438594 29.150927 16711746
5.1809454 -4.7303219 29.558178 16711746
5.2533054 -4.6405368 29.294506 16711746
5.6665392 -4.7679939 29.76433 16711746
5.7472239 -4.6175103 29.351006 16711746
5.8607059 -4.7432318 29.196056 16711746
5.9322414 -4.8608627 30.376623 16711746
5.9758687 -4.7221732 29.541859 16711746
3.8875222 -4.873209 30.474382 16711746
5.8138576 -4.6165733 29.189968 16711746
5.0231824 -4.8211412 29.797226 16711746
3.722837 -4.7841487 29.914007 16711746
5.8601265 -4.7332959 29.755165 16711746
-4.2481246 -9.8148298 37.151085 16711746
0.0076491819 -9.2269602 36.720898 16711746
5.1872835 -6.7699327 33.1856 16711746
-10.08203 -9.3008595 45.584003 16711746
16.530781 -10.867501 42.198746 16711746
15.36585 -10.720069 41.941551 16711746
7.3702617 -7.1425352 34.162582 16711746
-10.620732 -12.037718 51.282543 16711746
6.4365654 -7.1159658 33.585918 16711746
5.6962862 -4.6549039 29.379522 16711746
1.9406762 -5.1901121 30.857906 16711746
6.3740296 -5.792244 30.008163 16711746
6.2959681 -5.5007458 29.523972 16711746
5.766881 -4.6304431 29.224623 16711746
5.9313307 -4.6401367 29.365719 16711746
5.6661162 -5.2127476 28.617453 16711746
6.1119165 -4.6695614 29.379866 16711746
5.47787 -4.9046917 30.018238 16711746
5.5676079 -4.8136721 29.730831 16711746
5.8134804 -4.543014 29.487883 16711746
5.1780472 -4.8846388 29.945904 16711746
4.7698097 -5.0919781 30.367962 16711746
5.6627231 -4.6144223 29.428724 16711746
6.0810742 -5.3447313 30.223446 16711746
-32.789322 -11.043722 36.678833 16711746
-28.66744 -9.6012268 35.99659 16711746
5.869904 -4.6282954 29.48061 16711746
5.7812963 -4.6444802 29.45265 16711746
5.4473534 -4.8270559 29.833269 16711746
5.3965354 -4.8333941 29.775322 16711746
5.0655079 -4.9210377 29.768694 16711746
5.9557528 -4.6319814 29.274752 16711746
6.4119568 -5.3702788 30.329596 16711746
6.309001 -5.4864402 29.453577 16711746
6.1797295 -5.4617767 30.273584 16711746
5.6992741 -4.9004965 29.957708 16711746
5.28335 -4.8601704 29.311478 16711746
5.8211093 -4.6285796 29.406893 16711746
5.8225193 -4.7894101 29.693687 16711746
7.1647635 -5.3804145 30.247314 16711746
5.9431491 -4.5767808 29.393536 16711746
5.0369358 -4.6456723 29.834044 16711746
-1.2544832 -5.9599752 35.837543 16711746
7.7291842 -6.8179522 33.4282 16711746
6.215519 -7.0371718 33.812405 16711746
-24.885071 -9.6049881 33.529652 16711746
11.110137 -9.8288679 42.245247 16711746
5.1883078 -4.662509 28.858444 16711746
5.7546167 -4.8511949 30.284761 16711746
5.6827154 -4.6102128 28.958374 16711746
4.2816916 -4.7175622 29.000435 16711746
5.9273667 -4.6777911 29.418259 16711746
5.5933652 -4.6304941 29.084604 16711746
5.377202 -4.5729785 28.859869 16711746
6.0114298 -4.6717696 29.150564 16711746
5.2499366 -4.6257372 28.675049 16711746
6.0044198 -4.6575012 29.174467 16711746
5.4853358 -4.6376805 29.193235 16711746
4.3119073 -5.3136559 32.355755 16711746
5.6031399 -4.7222891 29.707497 16711746
5.4742746 -4.7798858 30.261021 16711746
4.7057967 -5.5493112 29.938755 16711746
6.1997333 -4.6578131 29.280102 16711746
5.4535813 -4.6162529 28.77951 16711746
4.3594303 -4.7285323 28.972971 16711746
4.2012014 -4.7016468 29.255104 16711746
5.9469237 -4.6675601 29.393795 16711746
5.3032894 -4.6034026 28.704159 16711746
5.3515325 -4.6244893 28.844839 16711746
5.2783904 -4.6304917 28.883501 16711746
4.8408322 -4.7706275 30.333944 16711746
5.292902 -4.7538824 29.748968 16711746
4.739213 -4.7606034 29.362438 16711746
5.5944881 -4.6485319 29.363852 16711746
5.4540138 -4.6549129 29.249733 16711746
5.6320372 -4.6308212 28.892931 16711746
6.0724721 -4.743104 30.005577 16711746
4.6223159 -5.382597 32.571072 16711746
5.4761295 -4.6783953 28.718313 16711746
4.6943455 -4.7600451 29.236895 16711746
5.1731954 -4.6983161 28.808962 16711746
3.6954494 -4.9690604 31.27199 16711746
5.7213998 -4.62322 29.000256 16711746
5.8342423 -4.6775193 29.585939 16711746
4.9084692 -5.2993121 31.87019 16711746
6.247592 -4.7115908 29.492901 16711746
6.1572008 -4.7352405 29.793962 16711746
5.4916091 -4.6594677 29.425882 16711746
6.647543 -4.9241576 30.461725 16711746
5.4148631 -4.7056994 28.61894 16711746
6.0685344 -5.5805483 31.268349 16711746
6.3883581 -5.7510824 31.740499 16711746
6.8275833 -4.9689703 29.609777 16711746
5.9719677 -4.8193245 29.972382 16711746
5.0406194 -4.8248467 29.892897 16711746
5.0798483 -5.0294499 31.42115 16711746
5.9666214 -4.7401929 29.853308 16711746
6.0423989 -4.6872358 29.4515 16711746
5.7479129 -4.6798353 29.525856 16711746
6.0904913 -4.6559014 29.136513 16711746
5.0879483 -4.8168464 29.550474 16711746
5.9255853 -4.6216836 29.113394 16711746
5.0545797 -4.7974734 30.006205 16711746
5.1409602 -5.0578794 31.466385 16711746
5.5273499 -4.676228 29.253162 16711746
5.6720557 -4.7153034 29.808443 16711746
6.2504897 -5.9371471 31.246296 16711746
5.8904381 -4.6336546 29.173485 16711746
4.7896943 -4.9007354 30.11508 16711746
5.8501773 -4.6347103 29.042934 16711746
5.7800436 -4.7389078 29.927515 16711746
6.1502953 -4.6857882 29.412365 16711746
5.84512 -4.6976118 29.434786 16711746
6.0616422 -4.6971374 29.376173 16711746
5.7494721 -4.6730108 29.4349 16711746
6.0829234 -4.6768394 29.237583 16711746
5.5318179 -4.6802239 29.364967 16711746
4.8653684 -4.9817452 30.562702 16711746
5.6408844 -4.6657529 29.390593 16711746
6.5791221 -4.8397779 29.194746 16711746
5.7725463 -4.672874 29.306501 16711746
5.8592801 -4.629283 29.197685 16711746
5.3659945 -4.7057414 29.23617 16711746
5.3325353 -4.5905581 28.933241 16711746
5.6405864 -4.7752867 29.557472 16711746
5.2150784 -4.6106176 28.932981 16711746
5.1062665 -4.5548377 28.813543 16711746
5.24154 -4.5444818 28.782047 16711746
5.5562773 -4.6728592 29.255255 16711746
5.3206816 -4.5281172 28.841608 16711746
6.0115194 -4.6431842 29.291658 16711746
7.0520849 -5.7336693 30.423065 16711746
7.9646921 -6.0812912 31.259039 16711746
6.0020018 -4.6182866 29.172264 16711746
5.9683795 -4.6110563 29.20677 16711746
6.1619444 -4.6891828 29.235769 16711746
5.3180099 -5.3486853 31.755968 16711746
6.1009831 -4.7427616 29.623743 16711746
6.2323432 -4.6867185 29.362984 16711746
5.686224 -4.7182932 29.62175 16711746
5.9730873 -4.7209129 29.544079 16711746
5.5205479 -5.5444398 31.361139 16711746
5.5073009 -5.0571523 31.533659 16711746
5.3237309 -5.2461414 31.698503 16711746
4.7935052 -4.7790332 29.463104 16711746
6.5390539 -4.797102 29.123907 16711746
5.9300084 -4.6464992 29.289902 16711746
7.5875092 -5.8733382 30.674736 16711746
3.9157767 -4.7720337 29.305082 16711746
5.5888629 -4.6717157 29.357576 16711746
6.2438717 -4.5958462 29.363335 16711746
-0.18741482 -4.9458232 30.970158 16711746
4.7195258 -6.0461478 33.053802 16711746
4.0692697 -5.3449192 32.682732 16711746
6.3168945 -5.2410493 28.919582 16711746
3.5489221 -4.7899485 29.822136 16711746
-5.1096511 -8.9165792 38.361294 16711746
-14.783159 -8.5651712 33.219112 16711746
3.7702298 -4.746376 29.557631 16711746
6.5091133 -6.4563851 31.699806 16711746
-3.2188668 -7.1489282 30.061214 16711746
4.9550247 -6.4645247 34.037308 16711746
-19.931269 -5.2480025 34.445133 16711746
11.594305 -8.4983253 37.38974 16711746
-17.637672 -11.573884 33.231327 16711746
-22.081495 -8.1973505 34.695213 16711746
-22.424406 -8.7450428 34.438351 16711746
5.8238568 -6.0604324 31.802845 16711746
-7.525846 -8.1924706 48.235653 16711746
4.4763632 -7.5070343 36.202984 16711746
-6.1120429 -9.2033577 33.275394 16711746
5.0306406 -5.2941747 29.181921 16711746
-22.496391 -14.340741 36.447647 16711746
-25.684258 -15.097904 37.604454 16711746
5.5789304 -4.6902957 29.207022 16711746
5.343801 -4.5689583 28.706305 16711746
4.0641627 -5.0183182 31.076931 16711746
6.273066 -4.7318139 29.794197 16711746
6.1248398 -4.6763673 29.367369 16711746
4.436008 -4.8009329 29.120619 16711746
5.5871491 -4.6248727 29.094048 16711746
5.4116855 -4.6727567 28.973885 16711746
5.6426654 -4.6107593 29.001987 16711746
6.1309347 -4.6439261 29.249819 16711746
5.249805 -4.6786332 28.812389 16711746
5.0755053 -5.3814135 31.955477 16711746
5.5488172 -4.6656051 28.705597 16711746
5.1903081 -4.5112724 28.664885 16711746
5.3301048 -4.8313627 29.95286 16711746
5.1810546 -4.5882235 28.898165 16711746
5.3817987 -4.5907135 28.692585 16711746
4.7570486 -4.6666851 29.028698 16711746
5.5709167 -4.6254706 29.008629 16711746
6.4471722 -4.7389927 29.697586 16711746
5.0124731 -4.810493 30.190434 16711746
5.2990351 -4.6140809 28.835854 16711746
5.322597 -4.6007652 28.76955 16711746
5.4835362 -4.6653848 28.690582 16711746
4.9560862 -5.6261826 31.971769 16711746
5.3316922 -5.2487974 32.09882 16711746
5.8367028 -4.6859679 29.602348 16711746
5.7077756 -4.6221094 28.964247 16711746
5.4189076 -4.6491351 29.17448 16711746
5.2350116 -5.6066494 32.091511 16711746
5.9757247 -6.1148071 31.667942 16711746
5.9316072 -4.6346269 29.090916 16711746
6.2099833 -4.7351928 29.407869 16711746
6.2426562 -5.4214854 30.11796 16711746
4.9558086 -4.4792576 28.768358 16711746
5.9014711 -4.6580219 29.319311 16711746
5.9265146 -4.7580705 29.938055 16711746
6.0205173 -4.6604991 29.206764 16711746
5.9570551 -4.6559248 29.303669 16711746
6.1749129 -4.701817 29.3815 16711746
5.7184334 -4.6616907 29.353075 16711746
6.0188279 -4.6199517 29.113789 16711746
6.0708871 -4.6447973 29.132742 16711746
6.4572339 -4.8991518 29.618574 16711746
6.0555587 -4.6686902 29.313194 16711746
6.2616501 -4.7474976 29.319124 16711746
4.7711043 -4.8847551 30.191389 16711746
6.6706095 -4.8942523 29.406178 16711746
6.3438525 -4.6927748 29.440266 16711746
6.1771951 -4.7094865 29.362165 16711746
5.4791183 -4.7343225 29.497154 16711746
5.7311492 -4.6954246 29.441664 16711746
4.4557462 -4.892005 29.71422 16711746
6.0359411 -5.0727301 28.408922 16711746
6.0378103 -4.6226969 29.207975 16711746
3.9904943 -4.8512797 30.089714 16711746
5.3356762 -4.5626574 28.601944 16711746
3.8343029 -4.7335639 29.429335 16711746
4.6601176 -4.585475 28.722387 16711746
5.6813545 -4.7289801 29.601343 16711746
4.4459763 -4.6885157 28.565092 16711746
5.280139 -4.5637307 28.81806 16711746
5.2507124 -4.5236483 28.795593 16711746
5.617857 -4.8324142 30.465693 16711746
5.740931 -4.7026863 29.374247 16711746
7.0111599 -4.7865267 30.054192 16711746
5.4723907 -4.6443362 29.075674 16711746
5.4103336 -4.5673957 28.780359 16711746
4.684453 -4.6187277 28.803223 16711746
4.9302034 -4.6214008 28.702763 16711746
5.3198938 -4.5628433 28.714039 16711746
5.8725333 -5.6293335 30.80987 16711746
3.1817591 -7.6328597 33.708633 16711746
4.5835514 -5.3998604 33.375275 16711746
6.0664124 -5.4384394 29.845783 16711746
3.3207405 -4.6966476 29.544617 16711746
-6.9924002 -9.3869534 34.118309 16711746
3.7009394 -4.9139409 30.577457 16711746
6.3127298 -6.1277013 30.835199 16711746
4.5709271 -6.6672812 32.164722 16711746
-15.71148 -12.03193 36.23349 16711746
-18.182804 -13.262329 36.124634 16711746
-6.5894461 -10.490265 36.591995 16711746
-9.4275465 -7.6568565 32.031956 16711746
-19.118956 -10.778923 33.158154 16711746
-23.977015 -9.5683203 35.410107 16711746
13.586184 -10.492742 42.625645 16711746
5.0921888 -7.0256677 34.556656 16711746
-7.4719791 -9.0386181 37.351639 16711746
6.4768486 -7.0443072 33.88789 16711746
5.7689147 -6.2026486 32.137333 16711746
5.9201875 -5.9724851 31.500469 16711746
6.2125373 -4.8333592 29.798319 16711746
5.8103132 -4.6870852 29.694719 16711746
5.9529119 -4.623621 29.234449 16711746
5.041398 -4.7923222 29.796412 16711746
5.4354763 -4.7064142 29.188198 16711746
6.1420298 -4.7223554 29.471535 16711746
5.6408777 -4.5940499 28.994043 16711746
5.5997987 -4.6350012 29.210991 16711746
4.6693549 -4.9601541 30.740526 16711746
5.6042204 -4.6546159 29.39719 16711746
6.0330729 -4.668118 29.685219 16711746
5.4020152 -4.6796665 29.079975 16711746
5.3082862 -4.6173491 28.883913 16711746
5.7880454 -4.6141272 29.13979 16711746
5.329772 -4.6124635 28.787762 16711746
5.8945875 -4.6634812 29.278461 16711746
5.4299445 -4.7313561 30.098316 16711746
5.6356659 -4.6224375 29.218571 16711746
5.4816489 -4.7124248 28.59186 16711746
6.3582392 -5.5482812 31.622049 16711746
4.6812844 -4.7547026 29.403334 16711746
6.2422605 -5.4910197 30.537193 16711746
4.9763951 -4.8268819 29.658783 16711746
5.9106865 -4.7143002 29.515036 16711746
6.2195525 -4.8327956 29.735849 16711746
6.0954289 -4.7286329 29.690884 16711746
5.9765611 -4.7339778 29.507242 16711746
5.5572472 -4.6286564 28.985739 16711746
-6.6688185 -7.887229 30.469725 16711746
-8.0962029 -8.3693275 44.744705 16711746
5.6793466 -6.614099 32.781372 16711746
-11.357912 -9.2512321 47.032776 16711746
5.7707014 -4.7012467 29.617262 16711746
5.7984314 -4.6764355 29.448166 16711746
5.4798341 -4.743638 29.561895 16711746
5.1698608 -4.7741323 29.353413 16711746
5.7813625 -4.9353247 30.775558 16711746
6.2948008 -4.8024573 29.631489 16711746
6.358346 -4.7588339 29.595894 16711746
4.9382863 -4.8290458 29.396437 16711746
6.4280696 -4.8308973 29.57489 16711746
5.3247018 -4.6491399 29.01302 16711746
4.1317453 -4.7578168 29.298285 16711746
3.7783768 -4.797833 29.847681 16711746
4.5033994 -4.6363416 28.979897 16711746
5.1627593 -4.5500727 28.772848 16711746
5.319685 -4.5091166 28.83143 16711746
5.378881 -4.5539503 28.798584 16711746
0.43567735 -5.7627773 32.439308 16711746
-1.2085881 -5.5070395 34.652397 16711746
8.5686111 -6.5532174 32.593895 16711746
6.3612981 -6.2020979 30.891979 16711746
6.5507464 -6.4194074 31.65579 16711746
8.658474 -6.3772101 32.226288 16711746
-5.9171505 -11.415216 42.274822 16711746
-10.319787 -12.020101 43.502068 16711746
-15.861843 -10.771839 32.764984 16711746
-16.854599 -9.5778122 32.332054 16711746
5.3653703 -4.6450744 28.879774 16711746
5.5679917 -4.5495253 28.974216 16711746
6.2919407 -4.7171111 29.219236 16711746
5.8033123 -4.6821961 29.133753 16711746
6.3979678 -4.6773291 29.273533 16711746
5.6710777 -4.5960841 29.308111 16711746
5.6628122 -4.6253672 29.058065 16711746
5.6346726 -4.6689153 29.252262 16711746
5.2631044 -4.5162544 28.735428 16711746
5.9268661 -4.7919393 29.60887 16711746
5.8068094 -4.5894289 29.105339 16711746
6.0599647 -4.6406379 29.445719 16711746
6.4306798 -4.712852 29.219477 16711746
5.2925191 -4.7100468 28.808674 16711746
5.1056252 -4.7973351 29.101933 16711746
5.256175 -4.6256123 28.755241 16711746
5.5097022 -4.5990376 28.976793 16711746
5.6997929 -4.5783305 29.028502 16711746
6.5321403 -4.7884169 29.530966 16711746
6.3327246 -4.6873531 29.31834 16711746
5.3689322 -4.6965418 28.918016 16711746
5.6712375 -4.6021729 29.18774 16711746
6.1214857 -4.6396794 29.196203 16711746
5.1924033 -4.6545544 28.837137 16711746
5.6109457 -4.6830673 29.215643 16711746
5.9447207 -4.6784496 29.273527 16711746
5.3802814 -4.7435102 29.289518 16711746
6.0974364 -4.7553687 29.257025 16711746
5.4261527 -4.7221022 29.207722 16711746
5.9709229 -4.6784139 29.217791 16711746
5.9295511 -5.0797577 28.40593 16711746
5.7214441 -5.1330323 28.445786 16711746
5.4027681 -4.6325412 28.890179 16711746
5.6129599 -4.611475 29.100885 16711746
5.7235579 -4.6350818 29.092249 16711746
5.4096608 -4.6695614 29.105333 16711746
4.0048046 -4.7934904 29.621267 16711746
5.4568124 -4.6769915 28.82477 16711746
5.7157316 -4.6351743 29.244699 16711746
5.4430594 -4.6701117 28.83453 16711746
5.0469365 -4.5290465 28.643705 16711746
6.1074085 -4.6326303 29.19589 16711746
5.4806962 -4.6392827 29.01755 16711746
6.1050787 -4.6896958 29.340437 16711746
5.6049428 -5.1688514 28.462809 16711746
5.085258 -4.8348341 29.833942 16711746
6.0857048 -4.6982126 29.098879 16711746
6.6902981 -4.7076349 29.662178 16711746
6.0872846 -4.6484623 29.208618 16711746
4.4795523 -4.5524015 28.869722 16711746
5.3328023 -4.6148272 28.951199 16711746
4.1194053 -4.5812831 28.991667 16711746
5.1066175 -4.5131507 28.713984 16711746
5.8426375 -4.6356802 29.435749 16711746
6.0255446 -4.7000494 29.340166 16711746
6.119854 -4.6741395 29.140371 16711746
5.5901737 -4.612432 29.333261 16711746
5.8922472 -4.6862206 29.383455 16711746
3.1395059 -4.4304762 28.87352 16711746
6.2103214 -5.8574839 30.313057 16711746
5.137382 -4.5483427 28.548565 16711746
6.2444148 -5.7583699 29.895483 16711746
4.9796743 -4.5710678 28.63908 16711746
4.5501051 -4.9057779 30.816929 16711746
4.9225936 -4.5557065 28.728489 16711746
3.8455477 -4.5877223 28.670439 16711746
-5.4818659 -9.5652285 33.491604 16711746
-12.623185 -8.4499865 31.854946 16711746
5.581522 -6.1294441 32.01675 16711746
5.5401516 -4.729073 29.277109 16711746
6.2196531 -4.7157793 29.289162 16711746
5.6042366 -4.7558279 29.418539 16711746
5.5951996 -4.7235608 29.245634 16711746
6.0335498 -4.7193933 29.291553 16711746
5.5870552 -4.5935097 29.016665 16711746
5.3090796 -4.5485787 28.737789 16711746
5.1596498 -4.8344278 29.476549 16711746
6.0903492 -4.7286749 29.274761 16711746
5.3859081 -4.6078939 28.849718 16711746
5.085535 -4.6227069 28.676907 16711746
5.5640068 -4.6373 29.094395 16711746
5.1475153 -4.7123394 28.907549 16711746
5.8675456 -4.7145367 29.459616 16711746
5.474844 -5.2109747 28.487083 16711746
5.4631763 -4.6066914 28.993139 16711746
5.9471707 -4.677279 29.328924 16711746
5.5393152 -5.1101756 28.47699 16711746
5.910111 -5.1134753 28.415041 16711746
5.4849563 -4.5921941 28.828974 16711746
5.2738004 -4.6114426 28.878094 16711746
5.4569354 -4.6525464 28.980898 16711746
5.0430498 -6.155879 32.636681 16711746
-6.9046583 -9.3108444 35.000443 16711746
5.4722524 -4.6946836 29.486244 16711746
5.3834586 -4.5579286 28.799194 16711746
5.0394344 -5.3433776 28.597328 16711746
5.0422788 -5.3794317 28.654232 16711746
5.4532437 -4.5921111 28.945244 16711746
5.5661955 -4.7077808 29.658298 16711746
4.8384385 -4.7037086 29.415359 16711746
5.8705883 -4.6172576 29.254284 16711746
5.4034743 -4.6763949 28.875626 16711746
6.3706746 -5.4701662 29.511774 16711746
6.0116701 -4.6547575 29.252262 16711746
6.392992 -5.8916945 30.705704 16711746
5.7419486 -4.6567945 29.270098 16711746
5.0848718 -4.696022 29.244867 16711746
5.2139935 -5.0709877 30.692249 16711746
5.5826669 -4.6431961 29.2472 16711746
5.0987301 -4.5186615 28.740942 16711746
5.4013133 -4.683907 29.226946 16711746
4.675416 -4.6900659 29.287006 16711746
5.4657288 -4.6100354 28.967558 16711746
5.5245781 -4.5984578 29.011833 16711746
4.8412466 -4.6089773 28.794176 16711746
4.4671922 -6.5442739 31.934788 16711746
-2.2249873 -7.7958775 32.227295 16711746
3.6424468 -5.4637675 33.968716 16711746
-0.57952327 -9.0734215 36.283352 16711746
-4.1502872 -8.9285221 34.38121 16711746
5.6139922 -6.0999856 31.02363 16711746
5.4545002 -4.6019974 28.844803 16711746
5.5226812 -4.6421413 28.935478 16711746
5.0007935 -4.7291665 28.638485 16711746
5.6284485 -4.6171727 29.230198 16711746
5.9181848 -4.6448131 29.192297 16711746
5.5300751 -4.9073858 30.022612 16711746
5.4911938 -4.5861678 28.943108 16711746
5.4415908 -5.2154775 28.498484 16711746
5.3063173 -4.8379478 29.424873 16711746
5.5616722 -4.742794 29.317337 16711746
5.4981456 -4.6769114 28.987795 16711746
5.1539593 -4.6124334 28.757982 16711746
6.2382808 -4.6073213 29.338079 16711746
6.2025852 -4.6025553 29.372438 16711746
6.5638518 -4.6217732 29.52055 16711746
5.3972292 -4.6092916 28.857605 16711746
5.0972347 -5.1491499 28.558352 16711746
5.1500249 -5.1660519 28.550768 16711746
5.434844 -4.6571789 29.059069 16711746
5.6665726 -5.1108494 28.44507 16711746
5.7909727 -5.0977101 28.424608 16711746
5.4207721 -4.7276249 28.879965 16711746
6.2020998 -5.3485436 30.066523 16711746
-3.0994189 -8.9381542 36.66082 16711746
4.7916493 -4.6703281 29.229343 16711746
6.4819875 -4.6647882 29.48237 16711746
6.319562 -4.6438899 29.262465 16711746
6.3520927 -4.6477833 29.422047 16711746
5.7723732 -5.1347346 28.438744 16711746
6.0621719 -4.6288929 29.19688 16711746
6.1881046 -4.8059196 29.896082 16711746
4.8101945 -4.6266007 28.823183 16711746
5.4005904 -4.6189256 29.031954 16711746
4.9643435 -4.9798403 30.746599 16711746
5.9828968 -4.6058774 29.189152 16711746
4.748673 -4.6372967 28.77701 16711746
3.873528 -4.9518781 30.702946 16711746
6.1881523 -5.4943609 29.941553 16711746
4.8313966 -6.2494869 31.567244 16711746
5.3038483 -4.6361885 29.077837 16711746
0.77857482 -8.9549503 35.775162 16711746
5.3642821 -4.5669794 28.869452 16711746
5.4610143 -4.6011643 28.923983 16711746
5.7283812 -4.5897274 29.319342 16711746
5.8737674 -4.677134 29.249882 16711746
6.1087589 -5.0698771 28.396557 16711746
5.6440649 -4.8032255 29.885933 16711746
5.2541432 -4.8473783 29.325958 16711746
5.5330968 -4.5739636 28.907051 16711746
5.5844202 -4.8035436 29.55765 16711746
5.2993517 -4.9693055 28.992384 16711746
5.5345783 -4.5955758 28.914078 16711746
6.1285691 -4.7846785 29.758102 16711746
5.5785308 -4.6274371 29.051279 16711746
5.4970388 -4.5733218 28.807125 16711746
5.3780918 -4.5156417 28.901447 16711746
6.0575395 -4.6850328 29.412249 16711746
5.6640825 -4.7052574 29.25141 16711746
5.099699 -4.6775951 28.891439 16711746
5.5862627 -4.7206693 29.256931 16711746
6.3079772 -4.737607 29.307913 16711746
5.4780183 -4.7134519 28.775303 16711746
4.9040465 -4.8209071 29.544863 16711746
4.1636772 -4.6180162 28.543316 16711746
6.1413846 -5.3497424 29.194059 16711746
5.5212417 -4.7178326 29.303574 16711746
5.4332623 -5.1574049 28.532169 16711746
5.9835191 -4.6120553 29.220526 16711746
6.3270092 -4.9158773 30.187853 16711746
5.0996747 -4.6863451 29.041798 16711746
5.6563282 -4.5965562 29.056396 16711746
5.4077511 -4.7992368 29.567701 16711746
5.2799344 -4.5444508 28.755236 16711746
5.2594848 -4.5656738 28.682766 16711746
5.8780265 -4.6330118 29.222101 16711746
6.5814648 -6.2696929 31.225883 16711746
6.320837 -5.8525519 30.198179 16711746
6.1837549 -5.6366639 29.748653 16711746
6.2942486 -5.5025244 29.531559 16711746
-1.4829215 -6.297554 35.506794 16711746
5.6130271 -4.6136374 29.103853 16711746
6.1095915 -4.6271911 29.59782 16711746
5.5468202 -4.5849195 28.895174 16711746
5.396358 -5.2942004 28.598766 16711746
6.2141347 -5.4533353 29.220884 16711746
5.2312598 -5.6216059 29.410074 16711746
5.1922755 -4.5672412 28.708513 16711746
5.5682249 -4.6419439 28.922043 16711746
5.4422894 -4.6775951 29.112221 16711746
5.642313 -4.7576461 29.36692 16711746
5.4728904 -5.2439766 28.520206 16711746
5.6298256 -4.71666 29.054016 16711746
4.811615 -4.6424294 28.951525 16711746
5.4091072 -5.1153789 28.484789 16711746
5.4818959 -4.6241317 28.686171 16711746
6.1129565 -5.1866255 28.800041 16711746
5.4215631 -5.1130457 30.703199 16711746
5.2878804 -4.6103845 28.885967 16711746
6.3473892 -5.8735414 30.639645 16711746
5.3542719 -4.6169987 29.043726 16711746
5.8520403 -4.6392698 29.375113 16711746
5.5427461 -4.7398973 28.603584 16711746
6.5387053 -5.4659777 29.527737 16711746
6.0285587 -5.4978046 29.88592 16711746
6.2748966 -4.8089557 28.983782 16711746
1.2887694 -4.7647672 29.990948 16711746
6.1905732 -5.6171899 30.050991 16711746
6.4122453 -5.7786522 30.113808 16711746
-0.42931598 -5.4265628 33.83543 16711746
4.1342721 -4.6020532 28.883064 16711746
5.0379453 -5.627749 32.116173 16711746
5.9522495 -5.3648119 29.249384 16711746
5.5358315 -4.7668352 30.065691 16711746
5.5991259 -4.7226176 29.715971 16711746
5.0247188 -4.59654 28.84499 16711746
5.4078603 -5.3317103 28.910219 16711746
5.2947421 -4.6797423 28.997915 16711746
6.205379 -5.3427606 29.125612 16711746
6.0443587 -4.6912818 29.381582 16711746
6.1109505 -5.205039 29.303612 16711746
5.3653774 -4.7506256 29.11018 16711746
5.322906 -4.6585999 28.963272 16711746
6.0999599 -4.734992 29.208916 16711746
5.46913 -4.6637244 29.36245 16711746
5.4706049 -4.6711206 29.168226 16711746
6.0585337 -4.6626062 29.385387 16711746
6.052352 -4.7951741 29.50782 16711746
6.1066899 -5.0783176 28.404295 16711746
5.7193198 -4.6390076 29.092409 16711746
6.1093807 -4.8480487 29.837942 16711746
6.4411573 -4.9293518 29.463043 16711746
6.0638137 -4.7581682 29.515043 16711746
5.4758301 -4.8211775 29.619888 16711746
5.576055 -4.7189431 29.439926 16711746
6.3108315 -4.6779785 29.847588 16711746
6.2963428 -5.7742343 30.092913 16711746
6.0585256 -5.5347128 29.552969 16711746
5.1384668 -5.4123421 32.45845 16711746
3.960819 -4.6843228 29.090919 16711746
5.9314051 -5.306859 29.263386 16711746
5.657032 -5.5600061 29.557318 16711746
6.2148433 -5.4433517 29.355488 16711746
5.2487683 -4.7055602 29.005079 16711746
5.863255 -4.6854076 29.692408 16711746
5.9626098 -4.6590953 29.294434 16711746
5.7286086 -4.6511135 29.540508 16711746
5.7851572 -4.6680589 29.102619 16711746
4.5865979 -5.3310738 28.728775 16711746
6.7293382 -5.4013214 29.399035 16711746
4.5549202 -4.7888808 29.329533 16711746
5.8797045 -4.7129655 29.394594 16711746
5.7358804 -4.5940661 29.278702 16711746
6.2941723 -4.8494511 29.33404 16711746
6.1805639 -5.1264229 28.520121 16711746
4.7110887 -4.7075744 29.092384 16711746
6.2200451 -4.7881489 29.792801 16711746
5.46035 -4.6579075 29.24671 16711746
6.1750803 -5.1298037 28.540827 16711746
5.6329675 -4.6441627 29.256109 16711746
6.2404099 -5.3828464 29.161829 16711746
3.2826128 -7.2366877 32.30352 16711746
6.3969169 -4.7151074 29.495775 16711746
5.4720502 -4.7893391 29.579079 16711746
4.3997192 -5.853344 29.750473 16711746
5.8448691 -4.6598487 29.140598 16711746
4.3997436 -5.4019189 28.690506 16711746
5.444931 -4.6671762 29.208944 16711746
5.1292443 -4.6523418 29.126541 16711746
6.1910305 -4.7699742 29.510742 16711746
5.8779926 -4.6516318 29.582243 16711746
5.590436 -4.9394722 30.57658 16711746
5.9341941 -4.6527944 29.467756 16711746
6.1258597 -4.6675324 29.395786 16711746
4.8057804 -4.7359247 29.151121 16711746
6.6758142 -4.659194 29.256458 16711746
5.4491343 -4.5900998 29.004112 16711746
5.4193249 -4.6780334 29.217211 16711746
4.7571507 -5.3360081 28.607801 16711746
5.7205949 -4.6842313 29.429321 16711746
5.5176764 -4.6390214 29.206533 16711746
5.4945536 -4.8454776 29.517988 16711746
5.3888979 -4.6878252 29.102692 16711746
6.9874063 -5.3144712 29.938263 16711746
5.6857843 -4.6550312 29.516695 16711746
4.6451836 -4.5784655 28.696941 16711746
6.6490531 -5.3828626 29.316988 16711746
6.0226336 -4.676518 29.258615 16711746
6.2454844 -4.7608957 29.249186 16711746
5.9454532 -4.6785102 29.272562 16711746
5.5846243 -4.6916041 29.216631 16711746
5.241467 -5.26055 28.520809 16711746
4.8225636 -5.2029414 28.559938 16711746
4.5622573 -5.1874065 28.636522 16711746
4.7636595 -4.561583 28.744915 16711746
5.8107028 -7.9853592 39.143993 16711746
4.867301 -5.3521671 28.600014 16711746
5.5665913 -4.8353767 29.436357 16711746
5.1004205 -4.5253768 28.856949 16711746
6.6162548 -4.5637641 29.819572 16711746
5.6759262 -5.1602578 28.433878 16711746
5.4573379 -5.1999469 28.481724 16711746
5.2730474 -4.5977998 28.651497 16711746
5.7078619 -5.10498 28.416813 16711746
5.6987586 -5.1069536 28.417418 16711746
5.3584042 -4.6307101 28.767611 16711746
5.1229715 -4.816257 29.547243 16711746
4.9073367 -4.7903347 30.219944 16711746
5.8387914 -4.9568729 30.258888 16711746
5.8784533 -4.5971813 29.360502 16711746
5.2009134 -5.2440009 28.536242 16711746
5.2397542 -5.1584582 28.505554 16711746
4.8193293 -5.4022679 28.63957 16711746
5.4081035 -5.0423808 28.449379 16711746
5.3746672 -5.0832205 28.459749 16711746
4.8804231 -5.3108606 28.601641 16711746
4.2805057 -4.6692891 29.322342 16711746
5.9962254 -4.6984539 29.398083 16711746
4.1825986 -4.6518397 28.796282 16711746
4.9903884 -4.6972961 28.635469 16711746
5.1213875 -5.0915217 28.501474 16711746
5.205595 -4.5790739 28.940378 16711746
4.9657145 -5.3072686 28.579811 16711746
5.9946866 -4.6975245 29.405148 16711746
5.4107618 -5.1556945 28.510702 16711746
5.4517236 -4.7293768 29.169479 16711746
5.5006561 -4.6674986 29.099394 16711746
5.3152924 -5.2596426 28.525425 16711746
5.6697097 -5.1622987 28.439585 16711746
5.495368 -4.5901065 28.940571 16711746
4.3065476 -5.3127041 28.705542 16711746
5.1044569 -4.8581157 30.460497 16711746
5.1158605 -4.6817284 29.042049 16711746
5.6505899 -5.1752315 30.238308 16711746
4.6890135 -4.7314277 29.99618 16711746
5.8554273 -4.6929998 29.529137 16711746
5.7705126 -4.6587343 29.411636 16711746
4.9699659 -4.621264 28.894526 16711746
5.4058642 -4.669014 29.245365 16711746
4.9817882 -4.5552068 28.936646 16711746
5.8166361 -4.7099099 29.454197 16711746
3.9305053 -4.7016177 29.226686 16711746
5.6867266 -4.8623157 30.180017 16711746
5.6192679 -4.8252239 30.480093 16711746
4.3609118 -4.6005945 29.029917 16711746
4.2703943 -4.5343418 28.769815 16711746
4.6957312 -4.6481895 29.053558 16711746
6.1434612 -5.4165173 29.314314 16711746
5.655457 -4.6953688 29.290485 16711746
6.1689143 -5.5862617 29.913412 16711746
6.0897045 -5.0927682 28.426193 16711746
5.626338 -4.6713562 29.333544 16711746
5.6495619 -4.764533 29.353172 16711746
5.4898396 -4.9101424 29.111689 16711746
5.2277465 -5.4246945 29.487993 16711746
5.4250059 -4.8735151 28.944077 16711746
4.802875 -4.6933155 28.647146 16711746
5.1331229 -4.628696 28.862907 16711746
8.4482813 -8.3365059 43.796745 16711746
5.3188787 -4.6648836 29.343025 16711746
4.8159695 -5.0985408 28.545286 16711746
5.3954182 -5.6344929 30.856752 16711746
6.075439 -5.3307652 29.865362 16711746
5.5883784 -5.5681739 30.100908 16711746
6.4053545 -6.0297527 30.559525 16711746
4.0182939 -4.9493966 30.58391 16711746
4.0549736 -5.0152493 30.831593 16711746
5.2264748 -5.3957987 32.005756 16711746
5.2314267 -5.9525204 30.177971 16711746
5.6533976 -5.5577831 30.094578 16711746
5.516892 -5.5843992 29.764097 16711746
5.2310123 -4.5631585 28.563097 16711746
5.8015604 -4.6497545 29.442495 16711746
5.5419583 -4.7391953 29.309263 16711746
5.4424076 -5.0909524 29.365139 16711746
5.775948 -4.6115866 29.550373 16711746
6.2038031 -5.6920204 29.746391 16711746
5.1051879 -4.8274832 29.390217 16711746
5.4189773 -4.8174367 29.658497 16711746
6.4879775 -4.8084579 29.465691 16711746
5.2854223 -5.8942146 30.06719 16711746
5.8410568 -4.843822 30.120123 16711746
5.2995381 -4.6140842 28.829206 16711746
5.4185047 -4.6937213 29.211832 16711746
5.2545171 -4.6681395 29.030455 16711746
5.052978 -5.1306725 32.058365 16711746
6.1706705 -6.6444101 32.967083 16711746
5.303266 -4.8985567 29.320808 16711746
5.3053126 -5.7207518 29.678654 16711746
5.879333 -4.8487921 29.641829 16711746
5.9950886 -4.836812 29.433352 16711746
5.6055079 -4.6500053 29.404121 16711746
6.0814371 -4.8263144 29.224583 16711746
5.4849739 -4.7057467 29.587616 16711746
6.222692 -5.9082832 30.279249 16711746
5.6816363 -4.6564698 29.36989 16711746
5.4485912 -5.6217575 29.814341 16711746
5.2893295 -5.7637553 30.167204 16711746
4.2392592 -4.659071 28.685419 16711746
5.1781445 -4.7347112 29.68375 16711746
5.6536226 -4.7804661 29.508883 16711746
12.39368 -11.389956 46.774792 16711746
6.1353097 -8.6835146 38.053219 16711746
5.117907 -5.3860984 28.821312 16711746
6.0140905 -4.6782732 29.441473 16711746
5.8942037 -4.6845584 29.382242 16711746
5.583693 -4.6895137 29.112497 16711746
3.3827622 -4.4599137 28.799454 16711746
5.7855458 -4.6220899 29.305204 16711746
6.3780823 -4.7691507 29.929354 16711746
5.3740821 -4.753871 29.496082 16711746
6.1102057 -5.4640808 29.722574 16711746
5.7656827 -4.7725334 29.683365 16711746
5.2593837 -4.8503528 29.607756 16711746
7.1284442 -5.7311954 30.311928 16711746
4.4496379 -5.6198297 29.04425 16711746
12.133135 -10.812233 44.003712 16711746
5.6201787 -4.8618875 30.302523 16711746
6.1203761 -5.476275 29.804405 16711746
5.8916907 -4.6580257 29.269773 16711746
5.1942792 -4.6405635 29.074856 16711746
7.4316573 -6.0291715 30.906326 16711746
6.068594 -5.1932793 28.858929 16711746
7.0529914 -5.640039 30.106247 16711746
7.0411057 -5.6386142 30.08605 16711746
6.0413928 -5.1636443 28.824905 16711746
5.3086147 -4.650363 29.183737 16711746
5.4898095 -4.7339549 29.400927 16711746
4.8533945 -6.8231969 34.656113 16711746
5.6156945 -6.9702392 36.088623 16711746
5.3370128 -4.8363757 29.949732 16711746
5.7094674 -4.6946335 29.431976 16711746
-3.9673636 -6.2860031 30.486595 16711746
5.1033187 -5.7922511 31.547638 16711746
5.021317 -6.9541225 34.36734 16711746
5.3635926 -4.86447 30.481863 16711746
10.22878 -10.035551 43.655659 16711746
5.9511304 -7.5902228 37.490303 16711746
5.3908038 -6.5089502 34.511532 16711746
1.6527895 -5.5638094 31.759434 16711746
5.2132077 -6.7637253 33.770782 16711746
5.5699224 -6.9212613 33.9571 16711746
3.7546077 -4.5512505 28.797285 16711746
1.4760137 -7.3839755 33.677372 16711746
1.2970543 -7.4708166 33.879673 16711746
5.5031109 -6.5831184 33.284809 16711746
4.6374369 -6.3615823 33.000153 16711746
5.4563284 -4.7625976 29.554472 16711746
5.3647065 -4.631804 28.983858 16711746
5.2898693 -6.2824655 36.667583 16711746
3.5629838 -4.8278279 30.357082 16711746
4.8870506 -6.8668013 34.232632 16711746
5.0323238 -6.7137752 33.891674 16711746
5.3478222 -4.7711482 29.425558 16711746
4.6171417 -6.5424094 34.091339 16711746
0.90563858 -7.0938873 34.531517 16711746
-0.60818475 -7.9028649 34.243179 16711746
5.9614773 -5.9711847 34.597355 16711746
6.0164776 -6.638968 37.308159 16711746
9.1080399 -6.7726412 38.378536 16711746
5.6918869 -4.6477847 29.222229 16711746
3.2105613 -5.1273503 32.289391 16711746
4.2257395 -8.547966 44.056416 16711746
5.0658998 -7.5848069 38.603352 16711746
3.6544826 -7.6458902 36.601482 16711746
5.4920788 -8.2789783 41.061432 16711746
11.4111 -10.866183 40.341354 16711746
10.857709 -11.222699 46.723305 16711746
5.0198126 -7.5139723 38.602928 16711746
4.930294 -8.368824 42.041756 16711746
9.5675268 -9.3411732 41.404129 16711746
-7.8665166 -10.45965 38.461353 16711746
-2.116169 -8.0550432 37.537449 16711746
5.5569921 -7.8070192 40.131382 16711746
5.3712573 -7.2530499 40.948185 16711746
-3.1328914 -8.1624928 36.925877 16711746
7.011848 -8.9451885 42.113949 16711746
-1.7396257 -8.6881733 42.821518 16711746
9.8059587 -10.649477 43.356216 16711746
4.6594362 -7.136735 35.435509 16711746
8.1918364 -8.2924452 37.378262 16711746
7.9431725 -7.3152084 35.171482 16711746
5.5163665 -8.2000923 40.72496 16711746
9.8989983 -9.9143457 42.896564 16711746
9.9869251 -9.2314043 37.168751 16711746
5.1017418 -6.689415 39.866501 16711746
5.0837278 -6.6988869 39.8857 16711746
5.4785857 -8.2232332 40.651585 16711746
3.2022598 -7.1805029 40.92643 16711746
9.3063307 -11.054495 45.179417 16711746
4.5576758 -7.3459082 35.402302 16711746
5.7535605 -6.9942217 41.173782 16711746
8.4255781 -8.028533 37.085728 16711746
-11.814905 -6.7947145 33.935909 16711746
5.1281252 -6.7089324 33.721172 16711746
5.5215054 -6.8564129 33.699837 16711746
6.8384895 -7.8299656 36.020718 16711746
5.6852503 -6.4110494 33.351681 16711746
5.8205991 -6.3983164 32.837929 16711746
5.4387064 -6.7975526 33.97015 16711746
5.3404112 -6.4860096 32.861233 16711746
6.4519696 -6.6807871 34.612244 16711746
6.2062836 -6.2922463 33.135365 16711746
5.3776913 -6.6409883 33.905563 16711746
5.8613491 -7.0064359 35.141052 16711746
1.1266886 -5.5131598 29.563179 16711746
-3.7576976 -9.5013847 36.107849 16711746
8.6143999 -10.95492 46.836212 16711746
6.6985288 -8.5283308 40.828655 16711746
5.0556779 -7.9898167 40.558613 16711746
-9.4051685 -6.532167 33.307072 16711746
-6.0131645 -5.4627142 35.701809 16711746
6.385438 -6.3966393 32.162258 16711746
-3.4476221 -5.5539665 35.293873 16711746
7.2306128 -7.9390955 42.421467 16711746
4.9749174 -6.9197216 33.539062 16711746
5.146493 -6.9343309 34.007866 16711746
6.3805027 -7.4953165 39.340294 16711746
6.3805037 -7.4953213 39.340317 16711746
5.6932769 -6.6570425 33.137371 16711746
5.3969836 -6.5648446 34.351833 16711746
6.1857562 -5.4506817 30.766668 16711746
11.172984 -10.260122 43.554756 16711746
10.415842 -10.291537 43.741268 16711746
10.077116 -9.8760738 42.5341 16711746
-0.33186403 -8.1695805 41.006924 16711746
7.315052 -8.105422 43.275528 16711746
9.6101904 -9.7688885 42.453838 16711746
-0.054155696 -10.478598 43.788242 16711746
-2.4245412 -6.3732443 34.575977 16711746
-6.2615094 -4.6526957 29.016562 16711746
4.0298009 -7.2129884 40.829735 16711746
0.034736313 -8.7361822 42.079361 16711746
5.9599018 -4.6223102 28.990332 16711746
8.8804626 -9.7213402 41.543175 16711746
5.8215947 -4.6921668 29.411142 16711746
6.1186409 -4.8791757 28.835531 16711746
-8.2371349 -10.041326 35.224598 16711746
5.3193641 -6.9621129 35.201199 16711746
-4.5452647 -7.4278483 40.721039 16711746
5.7238398 -6.695682 39.350269 16711746
-7.997642 -9.4511414 35.055534 16711746
6.3661137 -8.8293495 42.939877 16711746
5.5060081 -7.7671809 37.975533 16711746
-4.0997839 -9.1724939 37.097752 16711746
1.9870389 -5.5835733 31.211554 16711746
-6.477242 -7.6217813 31.489388 16711746
-6.1911721 -7.5455847 31.411688 16711746
5.4930673 -6.986999 39.580715 16711746
-2.2145023 -8.5423403 35.976707 16711746
10.307856 -11.98569 47.342289 16711746
-6.8545198 -7.837513 31.374447 16711746
-7.3763776 -7.9590006 31.500198 16711746
9.245265 -6.8751206 33.299732 16711746
5.5236015 -7.294426 36.383045 16711746
10.959505 -10.13959 43.888119 16711746
8.3974104 -10.06983 44.397316 16711746
10.841545 -11.838939 46.660583 16711746
11.665801 -10.1591 42.834095 16711746
12.785753 -11.518668 47.414154 16711746
-5.6951017 -7.6136794 29.778719 16711746
12.562675 -11.10276 44.876793 16711746
6.3892674 -8.0873022 40.409458 16711746
9.3407173 -9.2276049 40.406696 16711746
10.728535 -11.006891 47.781528 16711746
6.1247568 -8.7323236 42.925278 16711746
11.422503 -10.165928 43.693607 16711746
2.9258113 -5.8539968 31.2346 16711746
5.2628551 -7.9774756 39.197472 16711746
7.8348665 -7.715435 36.291409 16711746
6.6368375 -7.6393294 36.484814 16711746
4.7935195 -5.1886778 29.141865 16711746
7.9694333 -7.537334 36.256714 16711746
5.5162282 -7.1748228 35.269718 16711746
8.9881868 -7.7470298 36.257027 16711746
6.306694 -6.8797498 34.84301 16711746
5.8308039 -7.9361067 38.995979 16711746
-7.8335209 -8.0429916 31.59948 16711746
9.5181961 -10.465035 44.12759 16711746
9.2041159 -9.1558962 40.195957 16711746
8.1967897 -6.2140813 35.55164 16711746
4.6439967 -6.4199419 36.792439 16711746
8.4599962 -6.1586924 35.903648 16711746
8.7096472 -6.3001485 36.642517 16711746
11.550583 -9.4654398 40.489346 16711746
6.0430117 -6.9909215 40.679882 16711746
1.7006395 -5.5017838 31.119923 16711746
-6.7300072 -6.3578963 30.045952 16711746
4.6812329 -7.1308951 37.552032 16711746
4.1514115 -7.3903141 38.200745 16711746
4.7118521 -4.7990999 28.892756 16711746
5.5089178 -7.062921 35.507236 16711746
6.6896768 -9.5978603 43.126148 16711746
-3.9878516 -6.9453993 30.61854 16711746
9.7193203 -11.345056 46.2304 16711746
4.44874 -6.8206849 34.282772 16711746
5.9578619 -5.2171588 29.648907 16711746
6.4221349 -5.2020783 29.201431 16711746
4.5531034 -6.8063102 35.997215 16711746
4.4177442 -6.857379 34.408695 16711746
5.8118749 -7.0319095 35.892166 16711746
7.2253547 -6.4114146 36.691479 16711746
5.752759 -7.1711359 36.081177 16711746
5.621593 -6.9634638 36.762188 16711746
4.246707 -6.1462536 36.306408 16711746
4.6255898 -6.9263821 37.703259 16711746
6.1818166 -6.901454 35.98946 16711746
6.4956126 -5.2609329 29.336191 16711746
4.7999692 -6.680388 35.666187 16711746
6.2307186 -6.6923852 36.033386 16711746
4.6668882 -4.8032289 28.893024 16711746
-10.198266 -9.4390154 30.694426 16711746
0.15487476 1.0317532 2.5256617 16711746
-0.03695577 1.0574039 2.3958182 16711746
0.20443143 0.91740292 2.9691391 16711746
-0.23107883 1.1562876 2.3931637 16711746
-0.23772098 0.44949648 4.2591939 16711746
-1.8835725 0.52837133 4.0251012 16711746
-2.7124836 0.53736866 4.0704608 16711746
-1.596665 1.169696 1.905745 16711746
-1.1429036 0.050835211 4.2188473 16711746
-0.12333247 1.1349527 2.3128943 16711746
-0.54369986 0.51802003 3.8891954 16711746
-2.7717466 0.9572615 2.5593154 16711746
-0.028352905 1.0031787 2.4688864 16711746
-0.9898932 0.53985614 3.8481557 16711746
-1.5785346 0.59183294 3.8338921 16711746
-7.5797925 0.31501913 6.3143907 16711746
-0.8543393 0.15129554 3.8877349 16711746
-9.9795361 0.62619102 8.4818296 16711746
-1.2999061 -1.9448634 4.9975724 16711746
-2.9819512 -3.0070763 6.0835104 16711746
0.17224407 0.73638076 3.7156427 16711746
0.54599935 1.0312577 2.4127421 16711746
-0.95736367 0.88007826 2.86167 16711746
-0.92427707 -0.52181971 4.1051159 16711746
-2.864929 0.75299025 2.7667913 16711746
-0.87802118 0.10780787 3.7307088 16711746
0.10238858 1.0156728 2.6793473 16711746
0.42100316 0.88979143 3.1964297 16711746
-1.0743592 0.95113105 2.5890443 16711746
0.022302475 0.96865582 2.7539525 16711746
-2.9574873 0.90219384 2.8402503 16711746
-0.75528622 0.66189384 3.723496 16711746
-0.14615123 1.0127399 2.4100306 16711746
-0.88888758 -0.11853854 3.7749205 16711746
-0.68031776 0.031425107 4.0505042 16711746
-1.1003963 1.0959446 2.129503 16711746
-0.92127919 -0.81905299 5.8786974 16711746
1.0180141 1.0493835 2.6703057 16711746
-1.7938533 1.0519789 2.1531048 16711746
-0.76503533 -0.13093756 4.0517368 16711746
-1.4517747 0.9703601 2.5260863 16711746
0.23798203 0.98316878 2.4741082 16711746
-0.18067175 0.74156344 3.5908635 16711746
0.15552099 1.0760217 2.3496678 16711746
0.14121923 1.0769475 2.3958101 16711746
-4.121244 -3.2239821 6.4034185 16711746
0.56889236 -0.30333826 0.92035675 16711746
-7.3495016 0.30801386 7.2292242 16711746
-1.9939953 0.71354234 3.2385726 16711746
-1.3525838 0.86936027 2.8092058 16711746
-0.086384818 0.89549023 3.0487971 16711746
-1.7066864 1.0053123 2.2266765 16711746
-0.89928764 1.0314237 2.3227582 16711746
-0.66935158 0.021417245 4.0401521 16711746
-0.31418842 0.59355122 3.7332592 16711746
-1.5832775 1.1711265 1.9012157 16711746
0.55896574 1.0505286 2.4609585 16711746
-1.0301741 0.57084727 3.8101778 16711746
-1.1031644 -0.05217988 4.30475 16711746
-0.89926559 -0.13383341 3.8292015 16711746
-0.785043 1.1097405 2.1564915 16711746
-0.087252654 0.97640014 2.3533549 16711746
-0.32466385 0.60437816 3.760417 16711746
-8.155241 0.50508267 6.2813997 16711746
-0.12486742 0.83876246 3.2237303 16711746
0.19572996 0.5955978 4.4990602 16711746
0.92426437 1.0300314 2.7109301 16711746
-1.8282473 0.82102996 2.7598741 16711746
-0.96563929 0.67423135 3.4564695 16711746
-0.92961866 0.86378908 2.8984981 16711746
-1.2883494 0.73515093 3.0408635 16711746
-0.29764634 0.5055874 4.7597914 16711746
-0.32156149 0.92941213 2.4164464 16711746
-1.1088599 0.07649646 4.3114514 16711746
-0.97484779 -0.65667403 4.3437524 16711746
-0.93510991 -0.52200532 4.1343694 16711746
-1.185658 -0.52334416 4.3328142 16711746
-1.8747247 0.51669276 3.9914365 16711746
-3.2319643 0.32638675 5.6483388 16711746
-4.830205 0.48171976 5.5773745 16711746
0.42880896 0.7222566 4.0676618 16711746
-0.051147308 1.0040187 2.3115089 16711746
0.26346576 1.1493763 2.4425764 16711746
-1.5809211 0.41684619 4.4161153 16711746
-1.9475747 0.48452631 3.4631906 16711746
-1.6843015 0.56195903 3.9760964 16711746
-1.9898024 -3.3886847 7.5022664 16711746
-3.0976796 -2.859781 5.8790164 16711746
-0.67431492 -0.14513259 3.9931479 16711746
-0.84438008 -0.23098835 3.9110222 16711746
-0.72470921 -0.20185579 3.9979384 16711746
-0.65022922 -0.46071556 4.2770133 16711746
-0.66271871 -0.58340067 4.2271528 16711746
-1.0697763 -0.027873743 5.3695912 16711746
-0.96716142 -0.2373938 3.9103675 16711746
-1.3939528 1.1620955 2.0610769 16711746
-1.1683792 0.58995581 3.7232463 16711746
-1.911525 0.54780924 4.3195276 16711746
-2.1866798 0.554434 3.7764556 16711746
-1.7467365 0.6020543 3.6141276 16711746
0.069144286 1.0244451 2.2156267 16711746
0.84292173 0.92792249 3.4989562 16711746
0.15786459 1.2516801 2.74189 16711746
1.4516077 1.1383196 2.4330988 16711746
-1.421605 0.41520217 4.2743669 16711746
-1.9334365 1.0756145 1.9847707 16711746
-1.2989883 1.0341734 2.138346 16711746
-0.93530709 0.8663612 2.8922911 16711746
-1.1640389 -0.50253487 4.2751074 16711746
-4.4264293 0.86090833 3.9337828 16711746
-4.1426587 0.45267078 5.6927347 16711746
-1.4628918 1.0008849 2.1526861 16711746
-1.9356097 0.60272717 3.6101654 16711746
-1.8841549 1.0928748 2.261276 16711746
0.80947208 -0.42055067 1.247877 16711746
-3.3220434 -2.4516504 5.2614584 16711746
-0.77458727 1.0997314 2.2960494 16711746
-1.4937763 0.58093524 3.4390028 16711746
-1.6638125 0.61701852 3.3845546 16711746
-1.9978403 0.71116388 3.254463 16711746
-2.0370259 0.74013519 3.7824373 16711746
-2.0498438 0.95004618 2.499635 16711746
-0.10496886 0.97765779 2.4986777 16711746
-1.1579838 -0.4023762 4.2579389 16711746
-0.23550963 0.44346923 4.2527766 16711746
-0.97291601 0.54951012 3.9189069 16711746
-2.8001215 0.7298941 2.7083986 16711746
1.0724053 1.1050521 2.6161513 16711746
-0.13475925 0.60813141 3.9368653 16711746
-0.63834876 -0.58188659 4.2251201 16711746
-5.7261419 -4.3691192 9.8018494 16711746
-1.3715669 0.58810407 3.1167743 16711746
-1.5133721 0.6154604 3.4834893 16711746
-1.800145 0.64420545 3.7783072 16711746
0.10693308 0.95894724 2.7184842 16711746
-2.4639077 0.78136629 2.0552306 16711746
-1.5505273 0.8545863 2.8963599 16711746
-0.8757785 0.5353058 3.7196314 16711746
-0.31227526 1.0334784 2.334764 16711746
-0.63754934 -0.48002473 4.2552571 16711746
-1.805425 0.80504239 2.7240729 16711746
-1.8872306 0.88549864 2.5432398 16711746
-1.9901958 0.93361551 2.6543612 16711746
-0.6214087 0.58602268 4.1110611 16711746
-1.136997 0.58176243 3.6477072 16711746
-1.2707387 0.60039639 3.4544079 16711746
-2.5314012 0.80400521 2.0921841 16711746
-0.89779556 0.82737744 2.7995415 16711746
-1.4216793 -0.53852421 5.1066551 16711746
-2.733372 0.84100974 2.6152673 16711746
-0.12609258 1.0079448 2.5516512 16711746
-1.1909972 -0.52187771 4.2199793 16711746
-0.97987723 0.048089024 4.1351118 16711746
-1.638953 0.55653512 3.8448131 16711746
-3.9871626 -4.1346593 11.346121 16711746
-5.2727318 -3.3374043 7.4822745 16711746
-3.3547528 -2.0566146 4.8261046 16711746
1.0638489 -0.47411469 1.3475728 16711746
-0.096559756 0.9732154 2.8362255 16711746
-0.8408972 -0.018761553 3.8418779 16711746
0.82433885 0.88031369 3.4755127 16711746
-3.4558418 0.74517047 2.7381842 16711746
-7.4302154 0.47501963 5.7653642 16711746
0.21535933 1.0262063 2.6826978 16711746
-37.151268 -12.456212 40.747482 16711746
-28.947126 -14.591609 40.695503 16711746
-8.1151772 0.32920372 7.1215034 16711746
-4.0104985 -3.3360341 6.5006685 16711746
-33.426105 -21.647022 49.109215 16711746
-7.1579847 -0.21470034 9.5501747 16711746
-0.30588257 -2.7185202 8.6616755 16711746
-1.2289855 -4.8168755 20.441191 16711746
-20.46987 -8.4631386 39.312084 16711746
0.77601433 0.30620396 6.6644306 16711746
-3.1547058 0.78181303 2.4593344 16711746
-15.929795 -5.4894371 38.582069 16711746
0.38738182 0.64514518 4.5763521 16711746
0.88870311 0.77440512 4.0846233 16711746
2.5927525 0.85007668 4.2641282 16711746
-0.87170738 0.52830404 3.7249334 16711746
-4.6860933 -0.62376505 10.275615 16711746
1.6246141 1.2562792 2.2055969 16711746
-1.3223119 -2.365356 5.1973248 16711746
-1.2552118 0.86230052 2.7264988 16711746
0.091766976 0.87720674 3.5416164 16711746
-0.5758698 1.0239277 2.3343928 16711746
-0.030241707 0.029667409 8.4020977 16711746
-13.988945 -0.19955397 12.135826 16711746
-33.505402 -14.631711 40.982647 16711746
-0.72637993 0.63073438 3.5790269 16711746
-6.6155796 -0.72839403 12.786742 16711746
-2.0498428 0.68974203 3.5182743 16711746
-2.256896 0.69347203 3.6122983 16711746
-0.63267887 1.0033387 2.388176 16711746
1.1552851 -1.536895 3.5048313 16711746
-1.3410815 1.1078818 1.9945245 16711746
-1.8326907 1.056159 2.1371846 16711746
-10.130904 -12.191025 34.513275 16711746
-1.443868 -2.2310214 4.7775054 16711746
-0.052872516 0.98178691 2.3960373 16711746
-2.8377397 -2.8008373 6.0262046 16711746
0.56354737 0.83649653 3.2478313 16711746
0.73553967 1.0486701 2.5527661 16711746
0.16740838 0.859936 3.5564148 16711746
-5.9152727 -6.4134369 19.812204 16711746
-7.3569269 0.45328796 6.0756645 16711746
-1.5852381 0.8862412 2.6383007 16711746
-8.3830643 0.2141678 7.2677746 16711746
-8.4854298 -9.4761019 22.037798 16711746
-21.402933 -12.271355 32.154476 16711746
-15.99012 -13.940829 36.732483 16711746
-7.4331899 -5.714788 22.905518 16711746
1.7849486 -5.544332 14.961061 16711746
-12.033232 -0.1731502 10.422736 16711746
2.1150827 0.65317488 5.1388903 16711746
-9.6211672 -9.1290712 29.142521 16711746
2.6161268 0.98716331 3.4147151 16711746
-8.1004143 -0.094747528 9.3374891 16711746
-8.2658052 -0.0095588667 9.0101128 16711746
-6.9909139 -0.55691683 11.933101 16711746
-1.3055331 1.089691 2.0756767 16711746
-8.3575583 -8.4556837 22.524998 16711746
-11.891611 0.1740911 8.1993713 16711746
3.0217285 0.87165517 3.4357438 16711746
