# .PCD v0.7 - Point Cloud Data file format
VERSION 0.7
FIELDS x y z rgb
SIZE 4 4 4 4
TYPE F F F F
COUNT 1 1 1 1
WIDTH 1022
HEIGHT 1
VIEWPOINT 0 0 0 1 0 0 0
POINTS 1022
DATA ascii
0.28928661 -0.82025743 6.1708474 2.3418144e-38
0.36326629 -0.81872642 6.2275639 2.3418144e-38
-0.3296814 -0.8746751 6.3040972 2.3418144e-38
0.2116203 -0.84789521 6.2550049 2.3418144e-38
0.4118804 -0.98450083 6.9585171 2.3418144e-38
-0.1996958 -0.8752836 6.3096442 2.3418144e-38
0.124844 -0.89048731 6.4403138 2.3418144e-38
0.2152409 -0.86792457 6.3457608 2.3418144e-38
-0.135194 -0.87840593 6.4931717 2.3418144e-38
0.29559299 -0.9005788 6.485136 2.3418144e-38
0.4179979 -0.90589273 6.3911791 2.3418144e-38
-0.3070724 -0.96976417 6.9323254 2.3418144e-38
-0.19647931 -0.85144418 6.2178741 2.3418144e-38
-0.1878749 -0.87109822 6.2662029 2.3418144e-38
0.064397298 -0.97358859 6.9626555 2.3418144e-38
-0.28074339 -0.95115137 6.9354272 2.3418144e-38
-0.127736 -0.82513928 6.2526174 2.3418144e-38
0.1557367 -0.93765873 6.8118916 2.3418144e-38
-0.3005096 -1.0945594 6.987412 2.3418144e-38
-0.2080929 -0.98693413 6.8963704 2.3418144e-38
-0.29731899 -0.97835612 6.692718 2.3418144e-38
-0.26330209 -0.83527148 6.1710124 2.3418144e-38
0.32860881 -0.85093588 6.2988987 2.3418144e-38
-0.1151229 -0.83369219 6.2862439 2.3418144e-38
-0.2057063 -0.86267531 6.2571077 2.3418144e-38
-0.28394169 -1.1233015 6.6102476 2.3418144e-38
-0.30162659 -0.82333899 6.1308918 2.3418144e-38
-0.3439948 -0.86310011 6.2622542 2.3418144e-38
0.1241356 -0.85374218 6.2946043 2.3418144e-38
0.20431709 -0.86581832 6.3221178 2.3418144e-38
0.45633119 -0.88583559 6.6888456 2.3418144e-38
-0.18563721 -0.84782201 6.2499175 2.3418144e-38
0.38595009 -0.84040773 6.3026133 2.3418144e-38
-0.34322879 -0.91642922 6.5766115 2.3418144e-38
0.33306569 -0.84844929 6.3064437 2.3418144e-38
-0.26836169 -0.90569228 6.4803557 2.3418144e-38
-0.1192173 -0.80007368 6.1370144 2.3418144e-38
0.3421824 -0.88656968 6.3927307 2.3418144e-38
0.2354638 -0.85722089 6.2837067 2.3418144e-38
0.1921159 -0.87495619 6.3618875 2.3418144e-38
0.25401989 -0.88151121 6.3828034 2.3418144e-38
0.1274462 -0.86286181 6.3200536 2.3418144e-38
-0.1066682 -0.83010268 6.2502408 2.3418144e-38
0.022147501 -0.83243471 6.1950817 2.3418144e-38
-0.273698 -0.86235797 6.2705488 2.3418144e-38
0.3422001 -0.88660961 6.3948913 2.3418144e-38
0.27987471 -0.88520652 6.4053073 2.3418144e-38
0.1428573 -0.8500405 6.2962217 2.3418144e-38
0.1051266 -0.84245771 6.2143812 2.3418144e-38
-0.1538552 -0.85893363 6.2921872 2.3418144e-38
-0.27362469 -0.86036217 6.2680702 2.3418144e-38
-0.085842498 -0.82546329 6.2469444 2.3418144e-38
-0.066161796 -0.84925598 6.34863 2.3418144e-38
0.32826671 -0.97186488 6.5188355 2.3418144e-38
-0.22523411 -0.81763291 6.105794 2.3418144e-38
-0.1452661 -0.87366062 6.5228715 2.3418144e-38
-0.25112399 -0.9714759 6.303524 2.3418144e-38
0.099384598 -0.86522561 6.5329204 2.3418144e-38
0.1999011 -0.86880761 6.310729 2.3418144e-38
0.38063061 -0.83690119 6.2365532 2.3418144e-38
0.15249971 -0.93995023 6.7758155 2.3418144e-38
-0.19482639 -0.89603847 6.4445562 2.3418144e-38
-0.1819355 -0.96286839 6.856215 2.3418144e-38
-0.27196679 -0.86192238 6.2652125 2.3418144e-38
-0.3470422 -1.0267075 7.2735868 2.3418144e-38
0.26590359 -0.93326539 6.6637154 2.3418144e-38
0.097222999 -0.87988502 6.3733158 2.3418144e-38
0.2061023 -0.84085459 6.2848487 2.3418144e-38
0.40555671 -0.86177599 6.3482747 2.3418144e-38
0.51061261 -0.8466208 6.4357572 2.3418144e-38
0.0037579001 -0.83833158 6.2331438 2.3418144e-38
-0.087023802 -0.82400137 6.2541981 2.3418144e-38
-0.1560085 -0.86117351 6.2880707 2.3418144e-38
0.25237021 -0.83144659 6.2544823 2.3418144e-38
0.27990901 -0.80716473 6.2093825 2.3418144e-38
0.1242902 -0.83325291 6.2211795 2.3418144e-38
-0.29909849 -0.87573987 6.3230414 2.3418144e-38
0.1673093 -0.86226052 6.3318038 2.3418144e-38
0.1242339 -0.83380729 6.2227316 2.3418144e-38
0.1317986 -0.84515232 6.2294364 2.3418144e-38
-0.2021516 -0.88073552 6.2817392 2.3418144e-38
-0.092504598 -0.86748058 6.4270692 2.3418144e-38
0.1168528 -0.84772658 6.2714252 2.3418144e-38
0.324954 -0.88148838 6.3698244 2.3418144e-38
0.0970245 -0.87965387 6.3744974 2.3418144e-38
0.1800146 -0.86867851 6.3349385 2.3418144e-38
-0.0231052 -0.82915258 6.2090735 2.3418144e-38
-0.2914893 -0.87822312 6.3145523 2.3418144e-38
0.2920194 -0.8461355 6.3121099 2.3418144e-38
0.2415006 -0.81568062 6.210361 2.3418144e-38
0.0608906 -0.84172368 6.2336597 2.3418144e-38
-0.33410269 -0.84075308 6.1678023 2.3418144e-38
-0.064918503 -0.81606603 6.2054701 2.3418144e-38
0.00098270003 -0.84091222 6.2804351 2.3418144e-38
0.090351798 -0.83677292 6.2227931 2.3418144e-38
0.085844703 -0.87533867 6.3673205 2.3418144e-38
0.36665681 -0.81811672 6.2316666 2.3418144e-38
0.1942843 -0.83769113 6.2130933 2.3418144e-38
0.45438579 -0.8651858 6.3621559 2.3418144e-38
0.4067032 -0.8307848 6.2867312 2.3418144e-38
-0.20839471 -0.82690293 6.1602139 2.3418144e-38
-0.1256652 -0.84730679 6.4014997 2.3418144e-38
0.36538431 -0.81211281 6.3232722 2.3418144e-38
-0.138653 -0.8217445 6.3251181 2.3418144e-38
0.088147402 -0.89214909 6.2974138 2.3418144e-38
0.2157449 -0.86996859 6.3372512 2.3418144e-38
-0.1596221 -0.83394718 6.179554 2.3418144e-38
0.30296111 -0.88345802 6.3506441 2.3418144e-38
0.20271391 -0.86865389 6.3158398 2.3418144e-38
-0.086295702 -0.82435459 6.2177243 2.3418144e-38
-0.0127131 -0.8120175 6.2957945 2.3418144e-38
0.1408916 -0.85273403 6.2155032 2.3418144e-38
0.62174863 -0.84355861 6.4588723 2.3418144e-38
-0.1629131 -0.83343488 6.1741967 2.3418144e-38
-0.0766543 -0.85830939 6.4140034 2.3418144e-38
-0.19388551 -0.92857212 6.6947026 2.3418144e-38
-0.1136965 -0.83035117 6.2948341 2.3418144e-38
-0.077643901 -0.85734361 6.4192028 2.3418144e-38
0.2178494 -0.88598698 6.4433475 2.3418144e-38
0.36244431 -0.93642652 6.5822005 2.3418144e-38
0.27382949 -0.86831188 6.3424201 2.3418144e-38
-0.1958497 -0.83309901 6.1500592 2.3418144e-38
0.28994489 -0.9024424 6.4720793 2.3418144e-38
-0.34122759 -0.84230918 6.1703105 2.3418144e-38
0.2496814 -0.83702523 6.2504268 2.3418144e-38
0.0073218001 -0.838741 6.2821298 2.3418144e-38
-0.2226377 -0.89853442 6.2935114 2.3418144e-38
-0.108843 -0.82004738 6.2140298 2.3418144e-38
-0.1560666 -0.82016021 6.1518121 2.3418144e-38
0.1440099 -0.85215747 6.2336469 2.3418144e-38
-0.096484996 -0.91828662 6.8566117 2.3418144e-38
-0.1633514 -0.81127691 6.1531701 2.3418144e-38
-0.13557941 -0.95064551 6.9733992 2.3418144e-38
-0.2411253 -0.88928193 6.3084707 2.3418144e-38
-0.19462951 -0.9681356 6.9194355 2.3418144e-38
0.25101361 -0.92024678 6.6601505 2.3418144e-38
-0.1496449 -0.91996813 6.9505115 2.3418144e-38
-0.2309777 -0.89229763 6.3478103 2.3418144e-38
-0.1714482 -0.85489303 6.2053728 2.3418144e-38
0.35240269 -0.821998 6.2963948 2.3418144e-38
-0.32734379 -0.86603183 6.2520843 2.3418144e-38
0.3171494 -0.85644329 6.2930117 2.3418144e-38
-0.0103259 -0.88480878 6.2398863 2.3418144e-38
-0.1178294 -0.84162271 6.3221269 2.3418144e-38
0.2247896 -0.88084549 6.3976583 2.3418144e-38
-0.18554839 -0.9299522 6.6386361 2.3418144e-38
-0.374695 -0.85455048 6.2387099 2.3418144e-38
0.1009799 -0.85684109 6.2855639 2.3418144e-38
0.0292824 -0.85246861 6.2812686 2.3418144e-38
0.2058516 -0.86291713 6.3239965 2.3418144e-38
-0.2342964 -0.83794868 6.090735 2.3418144e-38
0.051150799 -0.87060231 6.3514762 2.3418144e-38
-0.30693191 -0.9463678 6.6310501 2.3418144e-38
-0.2392322 -0.92607659 6.2992682 2.3418144e-38
-0.099603899 -0.86531317 6.3676338 2.3418144e-38
-0.28940129 -1.1293908 6.6138687 2.3418144e-38
0.20337909 -0.87949473 6.3925495 2.3418144e-38
0.32822251 -0.87911308 6.376986 2.3418144e-38
-0.1122181 -0.82836992 6.2520566 2.3418144e-38
-0.21756481 -0.89287323 6.3903208 2.3418144e-38
0.099764898 -0.95779198 6.7877064 2.3418144e-38
-0.027111299 -0.86562169 6.5082221 2.3418144e-38
-0.26015541 -0.84992093 6.2259331 2.3418144e-38
0.31054509 -0.89092487 6.4161925 2.3418144e-38
0.0998137 -0.86060542 6.2784653 2.3418144e-38
-0.21188509 -0.89393228 6.3875165 2.3418144e-38
-0.27173281 -0.86328077 6.2702737 2.3418144e-38
0.3197957 -0.88732898 6.4337244 2.3418144e-38
0.17290489 -0.85599953 6.2930641 2.3418144e-38
0.34996161 -0.88206428 6.4062819 2.3418144e-38
0.1013377 -0.88394421 6.4628453 2.3418144e-38
-0.1581448 -0.86505282 6.2900834 2.3418144e-38
-0.101579 -0.87683928 6.495986 2.3418144e-38
0.0477014 -0.85514611 6.260437 2.3418144e-38
-0.064792298 -0.8504405 6.3471284 2.3418144e-38
-0.1152655 -0.85562408 6.3684502 2.3418144e-38
0.103844 -0.88871008 6.4395819 2.3418144e-38
0.1404971 -0.85386479 6.2831993 2.3418144e-38
0.36915749 -0.9088136 6.43503 2.3418144e-38
0.33516189 -0.85403383 6.3107071 2.3418144e-38
-0.1800178 -0.88145751 6.4159517 2.3418144e-38
0.1219854 -0.86181122 6.3252063 2.3418144e-38
0.13552339 -0.87223083 6.3628345 2.3418144e-38
-0.19872241 -0.87566531 6.3048701 2.3418144e-38
0.1265099 -0.90465277 6.3603449 2.3418144e-38
0.32516861 -0.86997658 6.3580666 2.3418144e-38
-0.1133402 -0.8754819 6.5829587 2.3418144e-38
0.0186662 -0.88925338 6.3707547 2.3418144e-38
0.14358871 -0.87710762 6.3757977 2.3418144e-38
0.36450839 -1.4530021 7.2226877 2.3418144e-38
0.063338697 -0.91144699 6.5155139 2.3418144e-38
-0.15952089 -0.91480851 6.5180621 2.3418144e-38
0.090592302 -0.86268508 6.3244948 2.3418144e-38
-0.2217356 -0.84549308 6.2041993 2.3418144e-38
0.055975001 -0.88374221 6.3707366 2.3418144e-38
-0.19162069 -0.9034093 6.5939274 2.3418144e-38
0.21404789 -0.86957097 6.3394661 2.3418144e-38
-0.198743 -0.97576952 6.8307085 2.3418144e-38
0.1186252 -0.93602991 6.6547475 2.3418144e-38
-0.1316788 -0.87061292 6.4683032 2.3418144e-38
-0.2992503 -1.1309757 6.9670362 2.3418144e-38
-0.25678179 -0.86917591 6.2561021 2.3418144e-38
0.27379379 -0.89249378 6.4834433 2.3418144e-38
-0.120016 -0.85173851 6.3767419 2.3418144e-38
-0.0417393 -0.85671473 6.3919911 2.3418144e-38
-0.16491941 -0.89905548 6.4676657 2.3418144e-38
0.21623009 -0.84380198 6.2722855 2.3418144e-38
0.044944402 -0.86811233 6.3071895 2.3418144e-38
0.2750726 -0.89175498 6.4862695 2.3418144e-38
-0.045811899 -0.88827401 6.5515604 2.3418144e-38
0.1344552 -0.91243923 6.5256219 2.3418144e-38
0.045389 -0.87134922 6.2974949 2.3418144e-38
-0.1649003 -0.83621359 6.1834426 2.3418144e-38
-0.218593 -0.84098172 6.1998224 2.3418144e-38
0.12539309 -0.8915959 6.4364386 2.3418144e-38
-0.20310161 -0.86488551 6.2540846 2.3418144e-38
0.25029951 -0.88344002 6.3790202 2.3418144e-38
0.1140113 -0.90987432 6.4803338 2.3418144e-38
-0.032497 -0.85355687 6.3315806 2.3418144e-38
0.1284585 -0.86708552 6.3560815 2.3418144e-38
0.34952661 -0.86997062 6.3172336 2.3418144e-38
-0.5597986 -0.87004328 6.3130007 2.3418144e-38
-0.1130753 -0.84685129 6.3545313 2.3418144e-38
-0.1180286 -0.83372408 6.2865243 2.3418144e-38
0.081796303 -0.87734658 6.3619223 2.3418144e-38
-0.074455 -0.83544618 6.3031063 2.3418144e-38
0.1668168 -0.86314201 6.328671 2.3418144e-38
0.37526819 -0.87427127 6.31286 2.3418144e-38
-0.3799668 -0.86908031 6.3230448 2.3418144e-38
0.33526549 -0.84083611 6.3134179 2.3418144e-38
0.0274393 -0.84731001 6.2912755 2.3418144e-38
0.1938978 -0.87252373 6.3660831 2.3418144e-38
-0.1242161 -0.85249132 6.3913598 2.3418144e-38
-0.1831983 -0.85001522 6.2215343 2.3418144e-38
-0.1721673 -0.88377088 6.3810124 2.3418144e-38
0.3312372 -0.84466928 6.3080101 2.3418144e-38
0.12835421 -0.86996531 6.3492665 2.3418144e-38
-0.1763171 -0.88279623 6.3862891 2.3418144e-38
0.077049702 -0.89284438 6.4566078 2.3418144e-38
0.3293651 -0.87940222 6.3741598 2.3418144e-38
0.1391249 -0.88572502 6.4259901 2.3418144e-38
0.1689481 -0.86009759 6.3362074 2.3418144e-38
0.37297109 -0.93411553 6.5937915 2.3418144e-38
-0.261949 -0.87940198 6.3294358 2.3418144e-38
0.32630301 -0.85018271 6.3045321 2.3418144e-38
-0.2452531 -0.88256443 6.1799169 2.3418144e-38
0.1598569 -0.86365318 6.3031387 2.3418144e-38
0.285936 -0.87950933 6.423748 2.3418144e-38
0.35132271 -0.91454327 6.4175553 2.3418144e-38
0.33135769 -0.84780169 6.3148751 2.3418144e-38
-0.1301095 -0.84356248 6.3140135 2.3418144e-38
0.20664971 -0.86173111 6.3250046 2.3418144e-38
-0.097667597 -0.88555408 6.5724888 2.3418144e-38
0.1528502 -0.87065321 6.3667145 2.3418144e-38
0.203669 -1.0213202 7.1201377 2.3418144e-38
0.1286553 -0.85336411 6.2861338 2.3418144e-38
0.1180001 -0.93601662 6.6531796 2.3418144e-38
0.35433471 -0.85904652 6.2947435 2.3418144e-38
0.25684819 -0.90509069 6.5244908 2.3418144e-38
0.0055483002 -0.84607112 6.2709322 2.3418144e-38
0.1668122 -0.86162531 6.3097153 2.3418144e-38
0.39357859 -0.92985481 6.6390748 2.3418144e-38
-0.1743591 -0.83871752 6.2264733 2.3418144e-38
0.101665 -0.85902297 6.3172393 2.3418144e-38
0.1691809 -0.8840692 6.3891873 2.3418144e-38
0.3620685 -0.90117848 6.5569425 2.3418144e-38
-0.069390103 -0.90646672 6.6805797 2.3418144e-38
0.081370898 -0.87070048 6.3467283 2.3418144e-38
0.20589051 -0.89200532 6.4716902 2.3418144e-38
-0.058159899 -0.89974302 6.6231856 2.3418144e-38
-0.32279751 -0.91782188 6.5250163 2.3418144e-38
0.1140477 -0.90514892 6.5127921 2.3418144e-38
-0.1538294 -0.92162329 6.6736422 2.3418144e-38
0.2957024 -0.86754727 6.3361621 2.3418144e-38
-0.2191541 -0.95968139 6.8114295 2.3418144e-38
0.2918373 -1.3797143 7.3002815 2.3418144e-38
-0.1214417 -0.9037112 6.6894603 2.3418144e-38
-0.1392688 -0.91703272 6.7428317 2.3418144e-38
0.1877493 -0.86244512 6.3504415 2.3418144e-38
-0.083512701 -0.86549842 6.4431181 2.3418144e-38
0.0215076 -0.88125622 6.4026518 2.3418144e-38
0.1053268 -0.87818152 6.3889346 2.3418144e-38
0.1023202 -0.92560703 6.6202321 2.3418144e-38
-0.3358005 -0.87254572 6.2934675 2.3418144e-38
0.14256281 -0.87792319 6.3779702 2.3418144e-38
-0.1253631 -0.88724363 6.5522299 2.3418144e-38
0.27636051 -0.89037001 6.488853 2.3418144e-38
0.27425641 -0.8919037 6.4851255 2.3418144e-38
-0.0108636 -0.86520928 6.4318852 2.3418144e-38
-0.40263009 -0.9348774 6.6234074 2.3418144e-38
0.27064431 -0.89430559 6.4777803 2.3418144e-38
-0.1901025 -0.9097029 6.497613 2.3418144e-38
0.35524139 -0.94102591 6.5677662 2.3418144e-38
0.2754226 -0.93183589 6.689239 2.3418144e-38
0.0630899 -0.90225118 6.4918981 2.3418144e-38
0.082439698 -0.87147057 6.3781242 2.3418144e-38
0.063088298 -0.90091121 6.4948077 2.3418144e-38
0.29378831 -0.86822492 6.335032 2.3418144e-38
0.6808632 -0.91170382 6.8109221 2.3418144e-38
-0.4109481 -0.9340474 6.6369023 2.3418144e-38
0.205147 -0.86447883 6.3221922 2.3418144e-38
-0.060102601 -0.87299532 6.4580493 2.3418144e-38
0.056680199 -0.88322097 6.3747287 2.3418144e-38
-0.252417 -0.91947609 6.3321233 2.3418144e-38
-0.1932199 -0.88967508 6.3776932 2.3418144e-38
0.2451455 -0.92057163 6.6200724 2.3418144e-38
0.1120413 -0.88238358 6.3584619 2.3418144e-38
-0.32626721 -0.9171468 6.5271864 2.3418144e-38
-0.2092718 -0.89672393 6.3804159 2.3418144e-38
-0.080320701 -0.86831069 6.4425459 2.3418144e-38
0.1014308 -0.96101451 6.8304834 2.3418144e-38
-0.0913231 -0.87411213 6.4894686 2.3418144e-38
0.17086729 -0.88272852 6.3990474 2.3418144e-38
0.0056016999 -0.93431091 6.7368855 2.3418144e-38
0.0271849 -0.89365602 6.4335628 2.3418144e-38
-0.2799001 -1.0500562 6.9347491 2.3418144e-38
-0.2063586 -0.94045329 6.6830211 2.3418144e-38
0.31765801 -0.89615679 6.5119867 2.3418144e-38
-0.34269869 -0.89707673 6.4374528 2.3418144e-38
0.054182101 -0.87286818 6.3429618 2.3418144e-38
-0.2071175 -0.84876639 6.2442985 2.3418144e-38
0.1358318 -0.87308812 6.3615341 2.3418144e-38
0.58032441 -0.87944663 6.6342497 2.3418144e-38
-0.19112191 -0.88966602 6.3639827 2.3418144e-38
0.1448462 -0.84947479 6.2920957 2.3418144e-38
0.58749223 -0.90923262 6.7753019 2.3418144e-38
-0.0456676 -0.88790828 6.5514627 2.3418144e-38
0.297721 -0.8669405 6.3414121 2.3418144e-38
0.35641441 -0.92124927 6.584424 2.3418144e-38
-0.065001801 -0.91130888 6.6708775 2.3418144e-38
-0.19821221 -0.90067673 6.4805808 2.3418144e-38
-0.59699619 -1.0630374 7.151967 2.3418144e-38
0.1742761 -0.94632381 6.7642736 2.3418144e-38
0.33590671 -0.896308 6.542841 2.3418144e-38
-0.1971143 -0.89264572 6.3994951 2.3418144e-38
-0.064436696 -0.90969872 6.6591048 2.3418144e-38
-0.20965379 -0.89557421 6.4957838 2.3418144e-38
-0.067199402 -0.90857661 6.6753831 2.3418144e-38
-0.32598299 -0.96570718 6.7313738 2.3418144e-38
0.096883498 -0.92635423 6.5782809 2.3418144e-38
-0.232989 -0.87942392 6.2971625 2.3418144e-38
0.27932069 -0.89960742 6.5251431 2.3418144e-38
-0.25065491 -0.92714041 6.5136518 2.3418144e-38
0.1340272 -0.93922848 6.5919242 2.3418144e-38
-0.34184539 -0.96399492 6.7643485 2.3418144e-38
-0.108735 -0.87283438 6.5138268 2.3418144e-38
-0.16218179 -0.93872672 6.6989899 2.3418144e-38
0.34354001 -0.9138391 6.5804706 2.3418144e-38
0.68790132 -0.93112522 6.900012 2.3418144e-38
-0.28167871 -1.0911793 6.9302568 2.3418144e-38
-0.096588202 -0.86405188 6.440825 2.3418144e-38
-0.2289433 -0.93269467 6.6856837 2.3418144e-38
0.29472271 -0.86773801 6.3379202 2.3418144e-38
-0.26912719 -1.0499669 6.9079595 2.3418144e-38
-0.12832481 -0.88630527 6.5403404 2.3418144e-38
0.063174397 -0.97266442 6.900002 2.3418144e-38
-0.072976798 -0.90517801 6.6996231 2.3418144e-38
-0.2141535 -0.98623908 6.9198074 2.3418144e-38
-0.136902 -0.8758046 6.5029936 2.3418144e-38
-0.1322149 -0.87816411 6.4921618 2.3418144e-38
-0.22231171 -1.0663371 7.4646549 2.3418144e-38
-0.1124064 -0.98701018 7.1849027 2.3418144e-38
0.1256205 -0.89008743 6.4374423 2.3418144e-38
0.2206443 -0.9534384 6.8230081 2.3418144e-38
-0.24385621 -0.9846161 6.8424063 2.3418144e-38
-0.1697937 -0.89789432 6.4725871 2.3418144e-38
0.31863311 -0.89578432 6.5119386 2.3418144e-38
-0.1000146 -0.9078539 6.6647358 2.3418144e-38
0.2679908 -0.91632217 6.6646385 2.3418144e-38
-0.1319004 -0.86697978 6.447403 2.3418144e-38
0.0552608 -0.90507078 6.5070739 2.3418144e-38
0.35892221 -0.91934568 6.588305 2.3418144e-38
-0.17294119 -0.91379452 6.534514 2.3418144e-38
0.1504579 -0.8889612 6.4614811 2.3418144e-38
0.068389498 -0.88440633 6.4490209 2.3418144e-38
-0.22274309 -0.89739388 6.4301105 2.3418144e-38
-0.1291232 -0.86944783 6.4419041 2.3418144e-38
0.0017134 -0.87671638 6.4192114 2.3418144e-38
-0.041636799 -0.90004343 6.6022768 2.3418144e-38
0.0114331 -0.93842632 6.6956882 2.3418144e-38
0.003697 -0.88100678 6.4090223 2.3418144e-38
-0.26223141 -0.90827888 6.4723201 2.3418144e-38
0.049573801 -0.8936609 6.417191 2.3418144e-38
0.120647 -0.936692 6.6496086 2.3418144e-38
-0.0182667 -0.90031612 6.5599661 2.3418144e-38
-0.1605839 -0.8936491 6.3988595 2.3418144e-38
-0.1849969 -0.91216218 6.3843985 2.3418144e-38
0.1996949 -0.91001362 6.5387411 2.3418144e-38
0.29818451 -0.92242599 6.6014481 2.3418144e-38
0.1384894 -0.91094691 6.5421605 2.3418144e-38
-0.2202318 -0.88559431 6.2855902 2.3418144e-38
-0.1093771 -0.88357639 6.4108295 2.3418144e-38
-0.046917502 -0.89038759 6.5476866 2.3418144e-38
0.2011299 -0.91031063 6.5385919 2.3418144e-38
0.37845939 -1.1403317 6.845355 2.3418144e-38
-0.073526099 -0.86963022 6.4984632 2.3418144e-38
-0.0063689998 -0.95446539 6.8266068 2.3418144e-38
-0.4579182 -0.92158109 6.6041899 2.3418144e-38
0.26806611 -0.88876033 6.4875779 2.3418144e-38
0.17462841 -0.94427711 6.786962 2.3418144e-38
0.248226 -0.92624807 6.6088438 2.3418144e-38
0.23040789 -1.1476614 7.2212505 2.3418144e-38
0.1036859 -0.88512158 6.4488297 2.3418144e-38
-0.072492898 -0.93250477 6.7497573 2.3418144e-38
0.1747508 -0.97606331 6.9319749 2.3418144e-38
-0.1153584 -0.89379281 6.5162096 2.3418144e-38
-0.0227942 -0.89789963 6.5693889 2.3418144e-38
-0.0173677 -0.91918159 6.6140075 2.3418144e-38
-0.2657811 -0.89784777 6.3672328 2.3418144e-38
-0.027908901 -0.87675917 6.4734664 2.3418144e-38
-0.26679969 -0.90888602 6.4744229 2.3418144e-38
0.068175197 -0.9745186 6.8633089 2.3418144e-38
-0.199283 -0.88894302 6.3535309 2.3418144e-38
-0.1036049 -0.93624741 6.7722902 2.3418144e-38
-0.31644329 -0.91442758 6.5445228 2.3418144e-38
-0.2270411 -0.88528901 6.3942184 2.3418144e-38
-0.1633487 -0.93769372 6.7018452 2.3418144e-38
0.0226744 -0.93325591 6.6649537 2.3418144e-38
-0.1791867 -0.920358 6.5475049 2.3418144e-38
-0.22057439 -0.92169547 6.5869389 2.3418144e-38
-0.1633319 -0.88140959 6.4179835 2.3418144e-38
-0.090581402 -0.86861891 6.4504533 2.3418144e-38
0.076419897 -0.91928452 6.5538778 2.3418144e-38
-0.2041849 -0.88952333 6.4066463 2.3418144e-38
-0.27341071 -0.90745842 6.4840131 2.3418144e-38
-0.092523202 -0.87279952 6.490963 2.3418144e-38
0.1157556 -0.90050191 6.4945207 2.3418144e-38
0.1155555 -0.89970672 6.4988418 2.3418144e-38
0.1644793 -0.90381831 6.5198059 2.3418144e-38
0.2622776 -0.93842453 6.6508708 2.3418144e-38
0.1034077 -0.93209249 6.6047459 2.3418144e-38
-0.1884672 -0.92303687 6.5336671 2.3418144e-38
0.27612761 -0.87590188 6.4343038 2.3418144e-38
0.1153886 -0.91662592 6.5411015 2.3418144e-38
-0.15285841 -0.92492288 6.6623707 2.3418144e-38
0.29011971 -0.93007469 6.645308 2.3418144e-38
-0.1489528 -0.92732358 6.6532488 2.3418144e-38
-0.35029021 -0.89007503 6.4084024 2.3418144e-38
0.2852084 -0.89463848 6.5375156 2.3418144e-38
-0.1960851 -0.90282983 6.4770598 2.3418144e-38
0.0619445 -0.90137362 6.4995675 2.3418144e-38
0.25388429 -0.93250382 6.671165 2.3418144e-38
-0.27707809 -0.99847472 6.985518 2.3418144e-38
0.0185495 -0.92276287 6.6097703 2.3418144e-38
0.1094163 -0.95441473 6.8451314 2.3418144e-38
0.1470814 -0.92785162 6.6671252 2.3418144e-38
0.2256155 -0.91911942 6.5427628 2.3418144e-38
0.042465899 -0.90614319 6.5510712 2.3418144e-38
-0.17254449 -0.91469091 6.5323043 2.3418144e-38
-0.30200189 -1.0587385 7.2074594 2.3418144e-38
0.1216593 -0.94664937 6.7503552 2.3418144e-38
-0.1206453 -0.92984831 6.796061 2.3418144e-38
-0.235172 -0.90884513 6.7112193 2.3418144e-38
-0.1384133 -0.87597549 6.4820652 2.3418144e-38
-0.2975055 -0.95557219 6.76827 2.3418144e-38
-0.081628099 -0.92565697 6.766223 2.3418144e-38
-0.20471621 -0.89917147 6.4466524 2.3418144e-38
0.45910391 -0.97724211 6.8828111 2.3418144e-38
0.30339569 -0.90759051 6.5568876 2.3418144e-38
0.31953371 -0.94415611 6.7336602 2.3418144e-38
-0.2212813 -0.89586753 6.4372358 2.3418144e-38
-0.072684497 -0.9336924 6.8127952 2.3418144e-38
0.2778852 -1.0366052 7.1558042 2.3418144e-38
-0.2085897 -0.98786533 6.9043117 2.3418144e-38
0.019137301 -0.92286861 6.6065235 2.3418144e-38
0.2400564 -0.94712508 6.7821283 2.3418144e-38
-0.040395401 -0.90206492 6.5959787 2.3418144e-38
0.2353649 -0.9499982 6.7760115 2.3418144e-38
0.40901861 -0.98710442 6.9431405 2.3418144e-38
0.2171381 -1.0137042 7.0763683 2.3418144e-38
-0.1665509 -1.2665312 6.8773594 2.3418144e-38
0.023801001 -0.95988399 6.7876925 2.3418144e-38
-0.097116798 -0.91243267 6.7012033 2.3418144e-38
-0.26546991 -0.88789493 6.4040422 2.3418144e-38
-0.2038018 -0.9887464 6.8927779 2.3418144e-38
0.3804315 -1.1071544 7.3353496 2.3418144e-38
-0.1127276 -0.90137261 6.9281297 2.3418144e-38
-0.051082499 -0.90313858 6.6100287 2.3418144e-38
-0.28671831 -1.0709373 6.8864326 2.3418144e-38
0.15814731 -0.91916132 6.5587444 2.3418144e-38
0.25378159 -0.91694659 6.6177931 2.3418144e-38
-0.16168229 -0.90305412 6.4600034 2.3418144e-38
0.1885813 -0.95430118 6.7201948 2.3418144e-38
0.31598371 -0.90200919 6.5808735 2.3418144e-38
-0.1361551 -0.93873101 6.4920764 2.3418144e-38
-0.2193858 -0.95597899 6.736867 2.3418144e-38
0.073858298 -1.0026327 6.9780636 2.3418144e-38
0.072524697 -1.0719502 7.4802508 2.3418144e-38
-0.093597002 -1.0159237 7.33742 2.3418144e-38
-0.067133203 -0.90571529 6.6729913 2.3418144e-38
0.28482461 -0.96725267 6.8275127 2.3418144e-38
0.33716261 -0.98314363 6.9458375 2.3418144e-38
-0.097656198 -0.89440233 6.602962 2.3418144e-38
-0.1233811 -0.88847142 6.5456319 2.3418144e-38
-0.043786399 -0.88670272 6.5478048 2.3418144e-38
-0.069676802 -0.89862847 6.608953 2.3418144e-38
0.018785199 -0.92198682 6.611166 2.3418144e-38
0.1625952 -0.90295279 6.5183868 2.3418144e-38
-0.27668121 -0.92360407 6.5288272 2.3418144e-38
-0.21793079 -0.89950001 6.4250684 2.3418144e-38
-0.35846499 -0.89841378 6.4567471 2.3418144e-38
0.36739269 -0.95208901 6.7874713 2.3418144e-38
0.1016704 -0.92842859 6.6093793 2.3418144e-38
0.23232511 -0.95183122 6.7990465 2.3418144e-38
-0.042365801 -0.90140682 6.6234736 2.3418144e-38
-0.085944697 -0.95443201 6.921742 2.3418144e-38
-0.38819551 -0.98003417 6.8758712 2.3418144e-38
0.16862001 -0.89832932 6.5301628 2.3418144e-38
0.020278201 -0.9249444 6.6014156 2.3418144e-38
0.29356831 -0.94299102 6.6833315 2.3418144e-38
0.49186689 -0.97205752 6.9354806 2.3418144e-38
-0.050282001 -0.9366101 6.8174791 2.3418144e-38
-0.17159151 -0.95192218 6.7381063 2.3418144e-38
0.291619 -0.91086662 6.552949 2.3418144e-38
0.40917891 -1.0347379 7.0343027 2.3418144e-38
-0.23154069 -0.93254381 6.6408787 2.3418144e-38
-0.29650679 -0.95185572 6.7311091 2.3418144e-38
-0.0651187 -0.90944588 6.6693244 2.3418144e-38
0.19656441 -1.0282663 7.2305803 2.3418144e-38
0.078894503 -1.0040869 7.0137334 2.3418144e-38
0.2891027 -0.98171532 6.8756452 2.3418144e-38
-0.18361831 -0.93115479 6.6397176 2.3418144e-38
-0.1090646 -1.0065516 7.184031 2.3418144e-38
-0.1513681 -0.92223781 6.6675892 2.3418144e-38
-0.0161121 -0.91863042 6.6401162 2.3418144e-38
0.14222001 -1.0073415 7.0250578 2.3418144e-38
0.1530875 -0.9679665 6.8311801 2.3418144e-38
-0.121356 -0.89664447 6.5759568 2.3418144e-38
0.067990802 -0.98867393 6.8429894 2.3418144e-38
-0.17604861 -0.93238872 6.6497111 2.3418144e-38
-0.029642699 -1.0362722 7.3356605 2.3418144e-38
0.31570351 -0.99738789 7.0652208 2.3418144e-38
0.2251654 -1.0400126 7.2723947 2.3418144e-38
0.1268422 -0.97620583 6.872654 2.3418144e-38
-0.1767474 -0.93098432 6.6517282 2.3418144e-38
0.0231693 -0.93180251 6.6711187 2.3418144e-38
0.25192121 -0.93464082 6.668891 2.3418144e-38
-0.163412 -1.0272171 7.1511393 2.3418144e-38
-0.1221806 -0.9428553 6.8244452 2.3418144e-38
-0.097786903 -0.91125959 6.6999326 2.3418144e-38
-0.1677023 -0.93668211 6.6782179 2.3418144e-38
0.1790822 -0.94422638 6.7738066 2.3418144e-38
-0.0665484 -0.91962761 6.7441239 2.3418144e-38
0.4838371 -0.96080792 6.9063969 2.3418144e-38
-0.2075243 -0.96346039 6.7903953 2.3418144e-38
0.1790624 -0.94423288 6.7752228 2.3418144e-38
-0.1082862 -0.94864857 6.8720384 2.3418144e-38
-0.061063699 -0.93340802 6.7938881 2.3418144e-38
0.2299429 -0.95342731 6.7930694 2.3418144e-38
-0.0180007 -0.93687862 6.7465353 2.3418144e-38
-0.061802398 -0.93336463 6.7961478 2.3418144e-38
-0.063864201 -0.91015762 6.6587992 2.3418144e-38
0.1559715 -0.96665752 6.8390117 2.3418144e-38
-0.18668529 -0.91587138 6.5573282 2.3418144e-38
-0.3986077 -0.97986323 6.8966465 2.3418144e-38
0.1714913 -0.93549198 6.732512 2.3418144e-38
0.0131718 -0.94049299 6.6885238 2.3418144e-38
-0.2188706 -0.95741898 6.7333064 2.3418144e-38
-0.2238466 -0.90752751 6.5257087 2.3418144e-38
0.1437254 -0.97306341 6.7892866 2.3418144e-38
0.0019384 -0.95336998 6.8299332 2.3418144e-38
0.1249081 -0.94843417 6.6774569 2.3418144e-38
0.217691 -0.92094362 6.6816549 2.3418144e-38
0.22023711 -0.9144218 6.5727763 2.3418144e-38
-0.13869859 -0.93402487 6.6434007 2.3418144e-38
0.26007569 -1.0777642 7.44908 2.3418144e-38
-0.1817667 -0.91929942 6.5509157 2.3418144e-38
-0.102994 -0.98282683 7.0367274 2.3418144e-38
-0.095620699 -0.99290049 7.0933504 2.3418144e-38
-0.1839525 -0.92013001 6.5728164 2.3418144e-38
-0.28705281 -0.96879113 6.8276391 2.3418144e-38
0.076684199 -0.92737043 6.6483488 2.3418144e-38
-0.051192299 -0.96035308 6.9449334 2.3418144e-38
-0.18986569 -1.0026917 6.9714341 2.3418144e-38
-0.0106447 -0.95133048 6.8572969 2.3418144e-38
-0.070288002 -0.91696829 6.7513313 2.3418144e-38
0.0765035 -0.93025959 6.6436234 2.3418144e-38
0.2278806 -0.95271403 6.8290892 2.3418144e-38
-0.1237529 -0.94075811 6.8394566 2.3418144e-38
-0.1821472 -0.97242802 6.8120513 2.3418144e-38
-0.066734098 -0.92044502 6.7402864 2.3418144e-38
-0.12705889 -0.91708589 6.7402086 2.3418144e-38
-0.080960698 -0.92687172 6.7628083 2.3418144e-38
0.0242138 -0.92954898 6.6751432 2.3418144e-38
0.0785098 -0.93591088 6.6472688 2.3418144e-38
-0.38383511 -0.98291558 6.875114 2.3418144e-38
0.0246309 -0.95582253 6.8125405 2.3418144e-38
0.25901851 -0.9704805 6.9037519 2.3418144e-38
-0.21747451 -0.90808737 6.7005172 2.3418144e-38
0.084897801 -1.0119064 6.9752836 2.3418144e-38
0.1026498 -0.96252948 6.8209147 2.3418144e-38
-0.33713281 -0.983136 6.8591218 2.3418144e-38
-0.26300761 -0.97070837 6.8371449 2.3418144e-38
0.40136829 -0.99062401 6.9289546 2.3418144e-38
-0.0873072 -0.95158398 6.9309297 2.3418144e-38
-0.27268109 -1.0610867 7.1404848 2.3418144e-38
-0.1272271 -0.91723073 6.7414908 2.3418144e-38
-0.1923672 -0.91263151 6.5639925 2.3418144e-38
-0.30723569 -1.0579549 7.2417359 2.3418144e-38
-0.2474184 -1.0548368 7.221282 2.3418144e-38
-0.028241601 -1.0356799 7.3277383 2.3418144e-38
0.060226601 -0.95527828 6.7733207 2.3418144e-38
-0.19521549 -1.015609 7.1158943 2.3418144e-38
-0.1098329 -0.94880289 6.8768964 2.3418144e-38
-0.2024149 -0.94419378 6.7135372 2.3418144e-38
-0.29758179 -1.0298945 7.1383634 2.3418144e-38
0.027005799 -0.94524902 6.7628965 2.3418144e-38
-0.040485099 -0.9333064 6.7803559 2.3418144e-38
-0.1746489 -0.94649023 6.7278056 2.3418144e-38
0.1370032 -0.9705435 6.8516674 2.3418144e-38
-0.0597184 -0.9345367 6.7880726 2.3418144e-38
-0.4143692 -0.95292568 6.7894969 2.3418144e-38
-0.23746 -1.0613998 7.4029808 2.3418144e-38
-0.2190814 -0.95488203 6.7368641 2.3418144e-38
0.2715638 -1.0124542 7.0892067 2.3418144e-38
-0.2012042 -0.9909637 6.8947754 2.3418144e-38
0.0103697 -0.9249832 6.7236114 2.3418144e-38
0.1137155 -0.98977762 6.9346929 2.3418144e-38
-0.087597303 -0.93493408 6.8316507 2.3418144e-38
-0.1170584 -0.93108833 6.7745051 2.3418144e-38
0.071247302 -0.94851983 6.771493 2.3418144e-38
0.1210412 -0.93419039 6.7071047 2.3418144e-38
0.1728171 -0.93185961 6.743403 2.3418144e-38
-0.35598761 -0.96391249 6.7907605 2.3418144e-38
0.1543448 -0.96742749 6.8324265 2.3418144e-38
-0.25232971 -0.98571521 6.8616824 2.3418144e-38
0.1281243 -0.98430949 6.8957582 2.3418144e-38
0.057773098 -0.9536525 6.7758517 2.3418144e-38
0.42770839 -1.0603255 7.027916 2.3418144e-38
-0.19807599 -0.94178343 6.685751 2.3418144e-38
-0.1249131 -0.96418571 6.9751301 2.3418144e-38
-0.31725651 -0.92841601 6.6591229 2.3418144e-38
-0.27011949 -0.96808702 6.7615614 2.3418144e-38
0.0079062004 -0.94739032 6.7792888 2.3418144e-38
-0.24198911 -1.1216263 6.8332419 2.3418144e-38
-0.2873905 -0.96269453 6.7805367 2.3418144e-38
0.0071239001 -0.96850991 6.8394346 2.3418144e-38
0.1272123 -0.94389021 6.7625179 2.3418144e-38
0.036990002 -0.99822289 7.0695152 2.3418144e-38
-0.18965399 -0.95163822 6.7214098 2.3418144e-38
-0.14985131 -1.0318313 7.1966977 2.3418144e-38
-0.1700317 -0.88449383 6.830575 2.3418144e-38
-0.099610798 -0.93391061 6.8257074 2.3418144e-38
-0.29195219 -0.9827733 6.8518052 2.3418144e-38
0.29535121 -0.97560829 6.9452915 2.3418144e-38
-0.18543071 -0.95663178 6.7497678 2.3418144e-38
-0.0667639 -0.93900222 6.8157854 2.3418144e-38
-0.32163909 -0.93416661 6.7115812 2.3418144e-38
-0.0022813999 -0.96055722 6.8634963 2.3418144e-38
-0.1661692 -0.96219921 6.8021235 2.3418144e-38
-0.1015246 -0.93409729 6.8257494 2.3418144e-38
0.1224332 -0.92995059 6.7130771 2.3418144e-38
0.26795489 -0.98241502 6.9614043 2.3418144e-38
0.36976701 -1.1491382 7.1931987 2.3418144e-38
-0.193335 -0.99333167 6.8802691 2.3418144e-38
0.051991999 -0.943313 6.7414083 2.3418144e-38
0.1362444 -0.94112062 6.7583451 2.3418144e-38
0.3062622 -0.96962959 6.8994231 2.3418144e-38
0.43929741 -0.97941607 6.9906368 2.3418144e-38
-0.109711 -0.90920109 6.7303343 2.3418144e-38
-0.2481997 -0.92455763 6.6609178 2.3418144e-38
0.0001876 -0.93954527 6.7730803 2.3418144e-38
0.075342298 -0.94647819 6.7430029 2.3418144e-38
0.48142001 -0.97331238 6.9178948 2.3418144e-38
-0.19001269 -0.98120129 6.8226328 2.3418144e-38
0.3149558 -0.97712421 6.9360871 2.3418144e-38
0.48942101 -0.96952373 6.9403548 2.3418144e-38
-0.13800681 -0.92437661 6.7795067 2.3418144e-38
0.00025449999 -0.94031978 6.7679586 2.3418144e-38
0.13438889 -1.0032036 6.9105282 2.3418144e-38
0.041389201 -0.99607807 6.9405985 2.3418144e-38
0.25842699 -0.97060043 6.9056363 2.3418144e-38
0.020610301 -0.95694017 6.8144636 2.3418144e-38
-0.29088351 -1.0073766 6.8473582 2.3418144e-38
-0.3090989 -1.027948 7.1603336 2.3418144e-38
0.035750899 -0.99467599 6.9613895 2.3418144e-38
0.0597945 -0.98700732 6.8617043 2.3418144e-38
0.13330939 -1.0087214 6.8967075 2.3418144e-38
0.22752181 -0.95072472 6.830523 2.3418144e-38
0.17623021 -0.95529211 6.8039889 2.3418144e-38
-0.1102113 -0.94422942 6.8677301 2.3418144e-38
-0.1578224 -0.94138151 6.6966853 2.3418144e-38
-0.14097591 -0.92122167 6.7870054 2.3418144e-38
-0.15638 -0.97958088 6.879786 2.3418144e-38
0.063013099 -0.98994708 6.8327684 2.3418144e-38
0.1358583 -1.0104187 7.1415677 2.3418144e-38
-0.061982699 -0.99683458 7.1144619 2.3418144e-38
-0.1673003 -0.96142823 6.8030028 2.3418144e-38
-0.18979301 -0.95430642 6.7534881 2.3418144e-38
-0.30791959 -1.0694171 7.3869777 2.3418144e-38
0.084280796 -1.0235686 7.1129408 2.3418144e-38
0.050928898 -0.98417342 6.9278769 2.3418144e-38
-0.0427709 -0.929968 6.7882481 2.3418144e-38
-0.081746101 -0.97478801 7.0121956 2.3418144e-38
-0.0547828 -0.93181169 6.7806129 2.3418144e-38
0.3369216 -1.0343353 7.0021558 2.3418144e-38
0.34588721 -1.1298723 6.8363056 2.3418144e-38
-0.1786038 -0.94437951 6.7326899 2.3418144e-38
-0.086980902 -0.93919718 6.8236156 2.3418144e-38
0.2041485 -1.025673 7.0720692 2.3418144e-38
-0.21891759 -1.0160139 7.251143 2.3418144e-38
-0.1432898 -0.95446599 7.0447478 2.3418144e-38
0.3073281 -0.96856892 6.9019332 2.3418144e-38
0.1915594 -0.95316178 6.8061213 2.3418144e-38
0.022218401 -0.95701438 6.8048663 2.3418144e-38
-0.35817361 -0.93323582 6.7439475 2.3418144e-38
0.31060901 -0.97392702 6.9182482 2.3418144e-38
-0.083513997 -0.92702937 6.7600236 2.3418144e-38
-0.092065498 -0.91619837 6.7824721 2.3418144e-38
0.35745019 -0.97130573 6.876235 2.3418144e-38
0.2243512 -0.94043982 6.7032962 2.3418144e-38
0.17731769 -0.95565891 6.8001556 2.3418144e-38
0.2379638 -0.95988178 6.6922154 2.3418144e-38
-0.30118611 -0.97654921 6.7460022 2.3418144e-38
0.26723999 -1.0089884 6.8383608 2.3418144e-38
0.27450109 -0.94242048 6.7961059 2.3418144e-38
-0.179645 -1.0334636 7.2284932 2.3418144e-38
-0.28415099 -1.0696573 7.3250694 2.3418144e-38
-0.156846 -0.95320219 6.7603831 2.3418144e-38
0.29815871 -0.96188182 6.8547912 2.3418144e-38
-0.2283397 -1.0281279 7.1226912 2.3418144e-38
0.1516439 -1.0171006 7.0722942 2.3418144e-38
-0.00015219999 -1.0085723 7.1060643 2.3418144e-38
-0.0647882 -1.0515717 7.4688373 2.3418144e-38
-0.1362437 -0.94493222 6.8701072 2.3418144e-38
-0.116807 -0.97330421 6.9880638 2.3418144e-38
-0.23838229 -1.0320249 6.8745556 2.3418144e-38
0.29124829 -1.0383526 7.192729 2.3418144e-38
0.1163697 -0.98962128 6.9329743 2.3418144e-38
0.051507201 -0.98463458 6.9229584 2.3418144e-38
-0.19031049 -0.97994143 6.8341041 2.3418144e-38
-0.1794969 -0.92901278 6.6900325 2.3418144e-38
-0.1289825 -0.95254898 6.8828974 2.3418144e-38
-0.2206025 -1.0154049 7.0452638 2.3418144e-38
0.0511632 -0.98540908 6.9220567 2.3418144e-38
-0.41030699 -0.94662827 6.7445607 2.3418144e-38
-0.2376512 -1.0030242 6.9828773 2.3418144e-38
-0.25326169 -0.9858557 6.8632441 2.3418144e-38
-0.0023888999 -0.97070807 6.8834572 2.3418144e-38
0.1349787 -0.95201969 6.7873254 2.3418144e-38
-0.2143461 -0.95841533 6.7300177 2.3418144e-38
-0.1108993 -0.92789823 6.7785487 2.3418144e-38
0.20480449 -0.97567159 6.9342446 2.3418144e-38
-0.079882801 -0.97624302 7.0124555 2.3418144e-38
0.2681452 -0.98220497 6.9645 2.3418144e-38
-0.1040658 -0.93998772 6.8594627 2.3418144e-38
-0.27083111 -0.9648928 6.8118653 2.3418144e-38
-0.064131603 -0.9303965 6.7998557 2.3418144e-38
0.351713 -1.016773 7.0349336 2.3418144e-38
0.13787261 -0.98421782 6.906817 2.3418144e-38
-0.2503978 -0.98704261 6.8608298 2.3418144e-38
-0.019211801 -0.97102028 6.9523711 2.3418144e-38
0.26525411 -0.95165813 6.6773753 2.3418144e-38
0.090076901 -0.95858443 6.8002615 2.3418144e-38
0.056646101 -0.97063458 6.8647628 2.3418144e-38
0.2926591 -0.9630146 6.8472519 2.3418144e-38
0.17301591 -0.9846319 6.9125342 2.3418144e-38
0.45232299 -1.011551 7.1278768 2.3418144e-38
-0.2138094 -0.93125862 6.693069 2.3418144e-38
0.0209025 -0.95647281 6.8164678 2.3418144e-38
-0.084194303 -0.97174901 7.0164838 2.3418144e-38
0.24192379 -0.96418881 6.9191213 2.3418144e-38
-0.25685951 -0.93679929 6.7917252 2.3418144e-38
-0.2147848 -1.0873141 6.8105474 2.3418144e-38
0.22685499 -0.97721541 6.8828492 2.3418144e-38
-0.1951813 -0.94847399 6.7294407 2.3418144e-38
0.0067798002 -0.95389348 6.8226562 2.3418144e-38
0.25167811 -0.99133879 6.9863782 2.3418144e-38
0.20531949 -0.96143222 6.8686633 2.3418144e-38
0.39255509 -1.0512738 7.3465233 2.3418144e-38
-0.1148417 -0.99116307 7.0825863 2.3418144e-38
-0.18206979 -1.0051718 6.9620099 2.3418144e-38
-0.1137004 -0.99197209 7.0811005 2.3418144e-38
-0.6560775 -0.98026723 7.0113096 2.3418144e-38
0.1045157 -0.96102309 6.8272462 2.3418144e-38
-0.0937846 -0.95477962 6.9120169 2.3418144e-38
0.1276647 -0.97604799 6.8727674 2.3418144e-38
0.017201601 -0.96259981 6.8508577 2.3418144e-38
0.38997921 -0.99350548 6.9143143 2.3418144e-38
0.3068895 -1.0034373 7.0189204 2.3418144e-38
0.2003894 -0.96616358 6.852335 2.3418144e-38
0.086457796 -1.0229771 7.1258855 2.3418144e-38
0.0094497995 -0.96573812 6.8704848 2.3418144e-38
-0.073715799 -0.94670892 6.8672147 2.3418144e-38
-0.056064699 -0.96402812 6.9555244 2.3418144e-38
0.1423182 -1.0087245 7.0234027 2.3418144e-38
-0.1745922 -0.99370939 6.9040608 2.3418144e-38
-0.1675828 -0.90133762 6.9274106 2.3418144e-38
-0.26626089 -0.95862752 6.7429318 2.3418144e-38
-0.2154163 -0.95985031 6.7925763 2.3418144e-38
0.38994089 -0.99891108 7.0225539 2.3418144e-38
0.029828301 -1.0409179 7.2756486 2.3418144e-38
-0.64674842 -0.97852498 7.0279884 2.3418144e-38
-0.111448 -1.0358903 7.4064679 2.3418144e-38
-0.29984161 -1.0017236 7.0287204 2.3418144e-38
0.087065697 -1.0913994 7.4925685 2.3418144e-38
0.2075876 -1.0260677 7.0717521 2.3418144e-38
0.2068195 -1.0170972 7.0559897 2.3418144e-38
-0.26987061 -0.97426027 6.8205757 2.3418144e-38
0.0151032 -0.9858247 6.9411788 2.3418144e-38
-0.1562662 -0.97901177 6.8213248 2.3418144e-38
0.21304969 -0.97695172 6.9310732 2.3418144e-38
-0.1578275 -1.0244938 7.1007562 2.3418144e-38
-0.1766246 -1.0096682 7.0174279 2.3418144e-38
0.16593561 -0.96148622 6.8565302 2.3418144e-38
0.1318945 -0.97199839 6.8829818 2.3418144e-38
-0.2378626 -1.0490834 7.2212777 2.3418144e-38
-0.1227154 -0.96328759 6.9906631 2.3418144e-38
0.165783 -0.96058309 6.8601165 2.3418144e-38
-0.67790651 -0.96307701 6.8808484 2.3418144e-38
0.19413429 -1.0307438 7.1968427 2.3418144e-38
0.36166379 -1.1764882 7.1375508 2.3418144e-38
-0.29072869 -1.0332342 7.1299624 2.3418144e-38
-0.2465871 -1.0765901 7.1432943 2.3418144e-38
-0.164713 -0.99937087 6.9881015 2.3418144e-38
-0.2006257 -0.97588521 6.8366294 2.3418144e-38
-0.33142579 -0.98068118 6.858263 2.3418144e-38
0.0566746 -0.97659671 6.8505611 2.3418144e-38
-0.58939272 -1.0009019 6.8008137 2.3418144e-38
-0.1073062 -1.0103157 7.1666884 2.3418144e-38
-0.1574745 -0.98089772 6.8772836 2.3418144e-38
-0.1856036 -1.0166872 7.0452609 2.3418144e-38
0.34401149 -1.171863 7.1081996 2.3418144e-38
-0.199845 -0.97067177 6.8162541 2.3418144e-38
-0.1890952 -0.98718011 6.8953419 2.3418144e-38
-0.26564541 -1.0296351 7.1213956 2.3418144e-38
-0.088965997 -1.0229608 7.2651486 2.3418144e-38
-0.19523861 -0.96884048 6.7779469 2.3418144e-38
-0.2438615 -0.95993263 6.7754426 2.3418144e-38
-0.1573091 -1.006834 7.009809 2.3418144e-38
-0.15807191 -0.98252988 6.8562694 2.3418144e-38
-0.1453601 -1.0634977 7.2920814 2.3418144e-38
-0.1744872 -0.99179339 6.9128942 2.3418144e-38
-0.0424877 -0.95398277 6.8700609 2.3418144e-38
0.0887115 -1.0107162 6.9844337 2.3418144e-38
-0.27447951 -0.96543032 6.769279 2.3418144e-38
-0.1179843 -0.94817758 6.9569807 2.3418144e-38
0.30904791 -0.96336418 6.832159 2.3418144e-38
-0.090918601 -1.0216893 7.2734456 2.3418144e-38
-0.2824873 -1.0343527 7.124413 2.3418144e-38
0.1409318 -0.99427152 6.9565129 2.3418144e-38
-0.1286784 -0.94793981 6.8660727 2.3418144e-38
-0.073337801 -0.94588917 6.872858 2.3418144e-38
0.34962711 -0.96553367 6.8105283 2.3418144e-38
0.2287177 -0.98887211 6.9845018 2.3418144e-38
-0.1203107 -0.96820521 6.960062 2.3418144e-38
0.27072459 -0.98017848 6.9697289 2.3418144e-38
-0.0057238 -0.98341513 6.9135671 2.3418144e-38
-0.38247761 -0.97042108 6.826057 2.3418144e-38
-0.022988001 -1.0663718 7.4486723 2.3418144e-38
-0.1036931 -1.0121332 7.1565657 2.3418144e-38
0.36696959 -1.1368668 7.135078 2.3418144e-38
-0.1685532 -0.97704881 6.8718905 2.3418144e-38
-0.072989799 -1.0266538 7.249845 2.3418144e-38
-0.1986731 -1.0123814 7.1749678 2.3418144e-38
-0.25821471 -1.0792667 7.432785 2.3418144e-38
0.023875801 -1.2865766 7.0087929 2.3418144e-38
0.2202822 -1.0274097 7.1736407 2.3418144e-38
0.13685361 -0.9860965 6.901001 2.3418144e-38
0.079464301 -0.97555798 6.8606429 2.3418144e-38
0.2640821 -0.96495497 6.9122701 2.3418144e-38
-0.3279756 -1.0477649 7.2048721 2.3418144e-38
-0.042908199 -1.0071449 7.1463952 2.3418144e-38
0.16450781 -1.0609177 7.3879771 2.3418144e-38
-0.15785711 -1.0297982 7.1340709 2.3418144e-38
-0.30928931 -1.022561 7.1117258 2.3418144e-38
-0.095508702 -0.95461738 6.9140525 2.3418144e-38
-0.14871991 -1.0436778 7.1955523 2.3418144e-38
0.0800533 -0.97577667 6.8597245 2.3418144e-38
0.2145817 -1.0523407 7.3172359 2.3418144e-38
0.1154629 -1.017055 7.0502625 2.3418144e-38
-0.099918798 -1.0177608 7.3153095 2.3418144e-38
-0.1768437 -1.0253125 7.0803585 2.3418144e-38
-0.39614701 -0.983531 6.8499269 2.3418144e-38
0.1867054 -0.98759079 6.9754186 2.3418144e-38
0.2773608 -0.97545898 6.9857349 2.3418144e-38
-0.18242569 -0.97258168 6.8089585 2.3418144e-38
-0.1175343 -0.9655171 6.9825587 2.3418144e-38
-0.2216603 -1.0153379 7.0471997 2.3418144e-38
-0.1059384 -1.0087608 7.1678777 2.3418144e-38
-0.65511799 -0.98350269 6.9766049 2.3418144e-38
-0.1046685 -1.0335166 7.3212566 2.3418144e-38
-0.1190113 -0.96528351 6.9828057 2.3418144e-38
-0.33975291 -0.97517067 6.8262916 2.3418144e-38
-0.020050799 -0.96313262 6.9398613 2.3418144e-38
0.1167397 -0.98986828 6.9322419 2.3418144e-38
-0.048590198 -0.96436828 6.9590082 2.3418144e-38
-0.169655 -0.97261369 6.840003 2.3418144e-38
-0.28221369 -1.0700804 7.3243151 2.3418144e-38
-0.018890699 -0.96722412 6.9287462 2.3418144e-38
-0.097268097 -0.96366858 6.9631004 2.3418144e-38
-0.29314709 -1.1743399 7.4089193 2.3418144e-38
-0.119799 -0.96576267 6.9819961 2.3418144e-38
-0.1703514 -0.97973549 6.797905 2.3418144e-38
0.095217504 -0.98960131 6.921752 2.3418144e-38
-0.23339731 -1.0733848 6.8448763 2.3418144e-38
0.1427642 -0.96854031 6.9368601 2.3418144e-38
-0.1023233 -0.96374959 6.9145341 2.3418144e-38
0.3452414 -0.98034108 6.956152 2.3418144e-38
0.029051101 -0.98213542 6.9037738 2.3418144e-38
-0.2151202 -0.98541659 6.8885593 2.3418144e-38
0.26234391 -0.96899831 6.9077086 2.3418144e-38
-0.2409053 -1.07347 6.8513207 2.3418144e-38
0.070687898 -0.99499738 6.9492116 2.3418144e-38
0.1735701 -0.98036933 6.9247513 2.3418144e-38
-0.2520915 -1.0141661 6.9665585 2.3418144e-38
0.026708901 -0.97621799 6.9175119 2.3418144e-38
-0.2179977 -0.9834283 6.8937716 2.3418144e-38
0.075974099 -1.0079371 7.0902791 2.3418144e-38
-0.64568049 -0.96922231 6.8629165 2.3418144e-38
-0.1912224 -0.9994207 6.9277115 2.3418144e-38
0.1157649 -1.017534 7.0546527 2.3418144e-38
0.22632951 -1.0014474 7.0618005 2.3418144e-38
-0.41419959 -0.9782657 6.8617806 2.3418144e-38
0.4547278 -1.0396006 7.2390647 2.3418144e-38
0.0145741 -0.95969492 6.8564305 2.3418144e-38
-0.021722499 -0.98988289 7.0453959 2.3418144e-38
-0.041978799 -1.0102912 7.1940227 2.3418144e-38
0.2266857 -1.019063 7.1349645 2.3418144e-38
0.088655502 -1.0920539 7.4969301 2.3418144e-38
-0.071078002 -0.99103999 7.0830755 2.3418144e-38
-0.56052572 -0.98112458 6.7833714 2.3418144e-38
-0.38068429 -0.98471451 6.9065714 2.3418144e-38
0.061114401 -1.0581013 7.3444629 2.3418144e-38
-0.0765341 -1.0274955 7.242713 2.3418144e-38
-0.0397177 -0.9720009 6.9812913 2.3418144e-38
-0.061674699 -1.0312151 7.2796168 2.3418144e-38
0.090542898 -1.0099891 6.9855576 2.3418144e-38
-0.1873733 -0.99486148 7.0144916 2.3418144e-38
-0.0382597 -1.0391024 7.3215203 2.3418144e-38
0.067480601 -1.0372298 7.1712856 2.3418144e-38
0.30526459 -1.0812807 7.4159284 2.3418144e-38
0.1269286 -1.0172408 7.0499539 2.3418144e-38
0.055778999 -1.0564947 7.3534312 2.3418144e-38
0.1114119 -0.98897707 6.9335275 2.3418144e-38
-0.3764807 -0.98523521 6.8674188 2.3418144e-38
-0.31298929 -1.1505779 7.2033648 2.3418144e-38
0.30349639 -0.96783501 6.9033189 2.3418144e-38
-0.20843519 -0.96245033 6.7932258 2.3418144e-38
0.31501731 -0.97122478 6.9441376 2.3418144e-38
-0.1262297 -0.95390928 6.8855228 2.3418144e-38
0.2190361 -0.97793239 6.9785748 2.3418144e-38
0.2734046 -1.0322382 7.1984272 2.3418144e-38
-0.1982372 -1.011976 7.0076876 2.3418144e-38
0.0370523 -0.98921728 6.9671421 2.3418144e-38
0.0195999 -1.0366629 7.2503629 2.3418144e-38
-0.66852272 -0.98198372 6.9850974 2.3418144e-38
-0.089327998 -0.97153759 6.9434867 2.3418144e-38
-0.23525029 -1.0137236 7.0194688 2.3418144e-38
-0.0405377 -0.96848291 6.9662457 2.3418144e-38
-0.1316127 -0.95305508 6.8783193 2.3418144e-38
-0.2469901 -0.9877162 6.8571601 2.3418144e-38
0.038886201 -1.0162638 7.098268 2.3418144e-38
-0.2317577 -0.96366489 6.7981195 2.3418144e-38
0.46551469 -1.0402391 7.2502346 2.3418144e-38
-0.090274498 -0.97366428 6.9677587 2.3418144e-38
0.1708279 -1.0131195 7.0219488 2.3418144e-38
-0.1228678 -0.96060961 6.8663568 2.3418144e-38
0.039648 -1.0064317 7.0123606 2.3418144e-38
0.33389121 -0.9603321 6.952209 2.3418144e-38
0.2280135 -1.0396433 7.274107 2.3418144e-38
0.096093602 -0.99229318 6.9167671 2.3418144e-38
-0.2218589 -1.0242724 6.9255791 2.3418144e-38
-0.020253001 -0.97168428 6.9542093 2.3418144e-38
-0.0472623 -1.0232201 7.2645044 2.3418144e-38
0.2866706 -1.0965757 7.5034838 2.3418144e-38
-0.2023806 -0.96544868 6.7855124 2.3418144e-38
0.087270401 -1.0232418 7.1179481 2.3418144e-38
-0.209932 -1.0196891 7.1194458 2.3418144e-38
-0.1181935 -0.96441263 6.9871068 2.3418144e-38
-0.25979879 -1.019725 7.0639482 2.3418144e-38
-0.22759239 -1.0074869 6.965734 2.3418144e-38
-0.20160431 -0.99322331 6.8631082 2.3418144e-38
-0.24599031 -1.0884166 7.1283998 2.3418144e-38
0.084526002 -0.98276103 6.9253826 2.3418144e-38
0.62194282 -1.0054269 7.2271104 2.3418144e-38
-0.16044819 -0.97859043 6.8571272 2.3418144e-38
0.3297455 -0.99353838 6.9865971 2.3418144e-38
0.2143396 -0.9867872 7.0109968 2.3418144e-38
0.120413 -0.98167402 6.9541478 2.3418144e-38
0.1397462 -0.995592 6.9532223 2.3418144e-38
0.17780741 -0.97730738 6.9327316 2.3418144e-38
-0.1019045 -0.97647429 7.0436678 2.3418144e-38
-0.2345082 -1.003263 6.9737611 2.3418144e-38
-0.35990241 -1.0296679 7.1165605 2.3418144e-38
-0.19916721 -0.99306297 6.8698955 2.3418144e-38
0.043044999 -0.99291378 6.9539351 2.3418144e-38
-0.198578 -0.99781132 6.833209 2.3418144e-38
0.16337959 -0.99292129 6.9748979 2.3418144e-38
0.19556659 -0.99406922 6.9411993 2.3418144e-38
0.3382602 -0.98976147 7.0003653 2.3418144e-38
0.034105599 -1.0261333 7.1707325 2.3418144e-38
-0.18719371 -0.98650151 6.8922963 2.3418144e-38
0.0301954 -1.0400383 7.2858996 2.3418144e-38
0.024818899 -1.0117356 7.0422654 2.3418144e-38
-0.045626 -1.0036032 7.1573749 2.3418144e-38
0.0460632 -1.0247313 7.1169152 2.3418144e-38
0.22471631 -1.0702206 7.4222126 2.3418144e-38
-0.1031372 -0.98203027 7.0381923 2.3418144e-38
-0.021604 -0.96458268 6.9364195 2.3418144e-38
0.16410141 -1.062259 7.3829575 2.3418144e-38
-0.030234899 -1.0198135 7.1565986 2.3418144e-38
0.1967591 -1.0426099 7.2555518 2.3418144e-38
-0.098164201 -0.99120522 7.1166515 2.3418144e-38
-0.051695898 -0.97447371 7.1160049 2.3418144e-38
-0.3015722 -0.98408949 6.8441133 2.3418144e-38
-0.0178973 -0.97184938 6.9530377 2.3418144e-38
-0.1209325 -0.9895938 7.0712419 2.3418144e-38
0.0142747 -1.0183473 7.034328 2.3418144e-38
-0.0236798 -0.96760172 6.9565434 2.3418144e-38
0.22937439 -1.04092 7.2817559 2.3418144e-38
-0.17952541 -1.0193734 7.0637631 2.3418144e-38
0.093674801 -0.99792129 6.9526372 2.3418144e-38
0.1110324 -1.0655557 7.4827209 2.3418144e-38
0.062623002 -1.0280831 7.2442784 2.3418144e-38
-0.1423732 -1.0555691 7.2205868 2.3418144e-38
-0.1238235 -0.97202539 7.0355163 2.3418144e-38
-0.1026723 -0.98294443 7.0390735 2.3418144e-38
-0.19473059 -0.97777468 6.8294048 2.3418144e-38
0.095879197 -0.99595833 6.9577947 2.3418144e-38
0.45900661 -1.0385288 7.2435541 2.3418144e-38
-0.095880397 -0.99283361 7.0929546 2.3418144e-38
